538.3292 540.4316 544.6016 550.6358 557.7722 565.5078 573.2701 580.9943 588.8091 596.8947 605.9091 616.7066 629.3127 643.443 658.6625 674.2441 689.1692 702.309 712.4316 718.6113 720.3546 718.1589 712.3411 705.3622 698.4554 693.0828 689.5887 688.6566 688.6403 689.2223 690.1869 691.5084 693.2194 695.1486 696.8458 697.8486 697.9687 697.3314 696.0427 694.5862 692.9525 691.1766 689.4338 687.1425 684.1009 679.9786 674.4456 667.2192 658.2607 647.7475 635.7974 622.5626 608.3806 593.7411 579.1905 565.2045 552.0822 539.9343 528.7044 518.3583 508.8115 499.9342 491.5771 483.8631 476.6536 469.596 463.153 457.5432 452.4894 448.1116 443.6143 439.7299 435.9076 432.1129 427.6772 422.7148 417.7003 412.7444 408.4262 404.2443 400.1948 396.3183 392.5883 388.9724 385.2582 381.4431 377.6928 373.7254 369.8433 365.8389 361.8376 357.7542 353.3727 348.7826 344.3083 340.5882 338.414 337.4735 337.3774 337.3621 337.6817 339.1027 342.2563 347.4161 353.2756 359.1773 364.6971 369.8017 374.6604 380.2861 387.941 398.735 413.3013 431.0196 450.2515 468.6159 483.3647 491.939 493.0343 486.4027 473.614 457.0029 438.5996 419.9102 401.8556 384.7137 368.2799 352.1909 336.3953 320.9544 306.0827 292.0899 279.3708 267.9708 257.6464 248.4091 240.672 234.4195 229.8559 226.7798 224.743 223.6105 223.3044 223.7854 224.9727 226.6204 228.5847 230.1927 231.1374 231.3713 231.0162 230.2549 229.0153 227.0569 224.3353 221.5466 219.5021 218.8805 219.8498 222.1863 225.439 228.2115 229.1002 227.5388 223.3916 216.9859 210.0014 204.1351 201.0394 201.5026 206.2338 215.3781 228.7447 245.533 264.6225 284.7015 304.3855 322.3781 337.6389 349.488 357.5403 361.465 361.4885 357.4294 348.8821 336.3542 320.5682 302.7784 284.5064 267.2171 252.0652 239.7055 230.3405 224.0042 220.2133 218.5401 217.4433 215.8595 213.3548 210.2658 207.0145 204.1071 201.6512 199.9913 198.5082 197.0084 194.9732 192.5162 190.1383 188.4734 187.2528 186.3355 185.6004 184.9954 184.54 184.2065 183.8593 183.2124 181.9278 179.7749 176.5698 172.9425 170.0899 169.3844 170.7016 174.2545 179.2063 184.8546 190.4642 195.3199 198.7724 201.2688 203.325 204.7066 205.4348 205.5442 205.079 204.1113 202.8324 201.7065 201.4853 202.437 204.721 208.3233 212.7629 217.9971 223.7645 229.7412 235.6887 241.8754 248.45 255.3006 262.1391 267.9757 271.3218 271.1828 267.1095 259.3623 248.5367 235.5264 221.4106 207.1908 193.7211 181.6841 171.4957 163.2902 156.9711 152.2955 149.0422 146.6964 145.201 144.3463 143.9531 143.9916 144.3575 144.8683 145.3627 145.6732 145.6948 145.5297 145.4009 145.5461 146.1934 147.5228 149.8594 153.3478 158.5165 165.1665 173.2797 182.7446 193.2701 204.6975 216.9065 229.8944 243.7854 258.7379 274.7732 291.6381 308.8618 325.8364 341.8511 356.1828 368.3837 378.4779 386.9931 394.7532 402.912 411.7999 421.1718 430.6384 439.6825 447.8051 454.7954 460.8032 466.2069 471.5741 477.4827 484.5769 492.9379 502.2673 511.3584 518.737 523.8535 526.5021 525.6559 523.2777 520.7958 518.5526 516.241 513.2609 508.8702 502.474 493.9586 484.031 474.2042
552.9702 552.8928 554.9127 558.9403 564.2417 570.4464 576.7747 582.9063 589.025 595.46 602.9225 612.3638 623.8663 637.2115 651.9212 667.2653 682.2792 695.8693 706.9 714.3832 717.7548 717.374 713.4899 708.4891 703.2781 699.7402 697.8105 697.7581 698.5206 699.6899 700.9348 702.3091 703.9178 705.444 706.3788 706.389 705.3614 703.7181 701.5818 699.4757 697.2723 695.1526 693.0637 690.5594 687.4781 683.444 678.1039 671.0891 662.3918 652.0219 640.0585 626.6891 612.2588 597.3041 582.3842 567.9789 554.381 541.6819 529.9519 519.2152 509.4267 500.4776 492.2086 484.5931 477.5469 470.9812 465.4987 460.5833 456.1799 452.1059 447.9339 443.853 439.8346 435.7886 430.8645 425.8344 420.9325 416.5197 412.7563 409.3455 406.0204 402.7735 399.6385 396.3052 392.8091 389.2401 385.4701 381.5989 377.6814 373.2247 368.6111 363.4233 357.8584 352.0757 346.6842 342.0627 339.1279 337.5512 336.8098 336.5419 336.677 337.6958 340.0846 344.0659 349.0116 354.3329 359.7348 365.0389 370.1104 376.0601 384.1169 395.341 410.1377 427.993 447.4395 466.3 482.0034 492.0518 494.9092 489.5358 477.6461 461.6702 443.6917 425.2294 407.1739 389.7644 372.8059 356.0807 339.5613 323.3986 307.9079 293.4142 280.2817 268.6425 258.3174 249.2746 241.9482 235.9615 231.8341 229.3674 227.6896 226.7977 226.6529 227.3449 228.9728 231.1561 233.9937 236.8028 238.8833 240.0798 240.4172 239.9207 238.4542 235.8444 232.2783 228.7267 225.8499 224.6113 225.2606 227.621 231.0522 234.0607 235.1818 233.6573 229.2337 222.3429 214.7703 208.3951 204.9091 205.4081 210.5609 220.543 234.8046 252.2969 271.6686 291.4295 310.084 326.3557 339.4339 348.9806 354.9233 357.5584 356.8377 352.5306 344.1884 332.0759 316.8837 299.816 282.3465 265.9095 251.5295 239.6706 230.5188 224.2171 220.2009 217.9026 216.011 213.699 210.6489 207.1387 203.6716 201.0027 199.2758 198.0011 196.8115 195.4985 193.8094 191.8208 189.9198 188.5384 187.6862 187.1458 186.7106 186.2845 185.9802 185.7422 185.3707 184.517 182.8462 180.2488 176.8372 172.956 170.1145 169.8933 171.9169 176.1717 181.7957 188.173 194.3352 199.6957 203.78 206.8073 209.2059 210.7583 211.4641 211.4957 211.0102 210.1614 209.2494 208.9011 209.691 211.8459 215.475 220.3883 225.9547 231.9069 237.9635 243.8293 249.3028 254.5994 259.8967 265.2751 270.4862 274.6903 276.7744 275.2438 269.3621 260.041 247.8919 233.784 218.6985 203.6182 189.4477 176.8906 166.5164 158.3732 152.1275 147.6812 144.6398 142.6714 141.6311 141.3604 141.7068 142.5469 143.7177 145.0085 146.1937 147.0841 147.5107 147.7009 147.9623 148.5435 149.7052 151.4986 154.4236 158.4654 163.8468 170.8377 179.294 188.9098 199.4202 210.7055 222.7495 235.6394 249.4788 264.377 280.3415 297.1904 314.5422 331.7894 348.184 363.0362 375.9019 386.7292 395.9291 404.3445 413.0558 422.5061 432.6822 443.1905 453.5087 462.9394 471.0373 477.7524 483.4202 488.3436 493.0661 498.3135 504.2785 510.9334 517.063 520.7616 522.0458 520.9102 517.382 512.8719 508.7983 505.5815 502.7906 499.6234 495.2605 489.0154 480.8763 471.4484 462.0638
569.6155 567.6016 567.6299 569.678 573.2042 577.7947 582.5249 587.2789 591.8419 596.8063 602.7603 610.6988 620.8162 632.9052 646.5198 660.94 675.2568 688.4442 699.4372 707.2325 711.4703 712.5878 710.9306 708.2411 705.1046 703.2865 703.0928 704.3572 706.2603 708.4588 710.2655 711.7864 713.1657 714.097 714.2381 713.3704 711.5259 709.2004 706.4336 703.6837 700.9757 698.5519 696.2671 693.6364 690.4309 686.4155 681.1761 674.4834 666.0554 655.7387 643.636 630.0214 615.3178 600.073 584.8649 570.2278 556.4647 543.5637 531.6033 520.7798 511.1298 502.5432 494.7271 487.2864 480.4037 474.3366 469.5492 465.2286 461.0608 456.8295 452.2093 447.6189 442.9127 438.295 433.2032 428.35 423.8187 420.0581 417.0836 414.6566 412.2859 409.8431 407.1351 403.8878 400.4323 396.6777 392.5993 388.5907 384.4745 379.595 374.4349 368.3717 361.9433 355.5791 349.6037 344.3997 340.445 338.1364 336.8584 336.1053 335.8176 336.1613 337.5385 340.2393 344.179 348.9586 354.2513 359.7458 365.4183 371.9806 380.8139 392.3941 407.2936 425.1725 444.7932 464.1952 480.994 492.818 497.9634 493.9256 483.1006 467.9484 450.4561 432.1031 413.7413 395.6364 377.761 360.0764 342.6788 325.8549 309.898 295.1016 281.8551 270.3215 260.3821 251.9432 245.1672 239.7662 236.1689 233.9987 232.4921 231.6252 231.3146 231.8094 233.5519 236.1729 239.6994 243.5287 246.8907 249.1597 250.1435 249.7777 247.9192 244.4969 240.1264 235.6274 231.7813 229.9374 230.3436 232.8335 236.7765 240.2027 241.6517 240.2598 235.6628 228.4196 220.3102 213.4893 209.8724 210.4633 215.9707 226.6167 241.4733 259.2478 278.4001 297.2779 314.2861 328.2161 338.5583 345.3172 348.8141 349.805 348.449 344.3124 336.8885 325.942 311.9074 296.0227 279.6953 264.3567 251.0323 239.8368 230.9788 224.9085 220.8272 218.1232 215.577 212.6988 209.2827 205.2643 201.5418 199.4389 198.1736 197.0658 195.9703 194.9595 193.5862 191.9032 190.1971 189.0869 188.5694 188.3443 188.0972 187.662 187.4308 187.2884 186.9702 186.0346 184.0842 181.2184 177.6676 173.3246 170.1949 170.1261 173.0245 178.086 184.3387 191.1613 197.891 203.7918 208.5649 212.1487 215.0691 217.0853 217.964 218.0069 217.5144 216.7645 216.1966 216.7803 218.9569 222.6507 227.8405 234.0759 240.6595 247.2066 253.3769 258.8408 263.4526 267.4975 271.1594 274.7481 278.1045 280.3894 280.7599 277.9771 271.1198 260.9619 248.0471 233.2222 217.4312 201.6812 186.9165 173.9621 163.4726 155.5473 149.6154 145.2603 142.3049 140.5399 139.8031 139.9481 140.8244 142.2774 144.115 146.0871 147.9305 149.4875 150.4063 151.0589 151.8302 152.8955 154.652 157.029 160.4233 164.856 170.4853 177.4847 185.952 195.4445 205.7208 216.7147 228.4928 241.1657 254.8693 269.6859 285.6045 302.4666 319.9192 337.3916 354.1423 369.4805 382.9708 394.5759 404.5785 413.6548 422.7968 432.5574 443.1865 454.2558 465.2726 475.407 483.9828 490.8779 496.5426 500.7277 504.0797 507.4362 511.0044 514.9114 518.0614 518.2895 516.0356 511.5145 505.3442 498.901 493.4034 489.2994 486.0996 482.8898 478.7083 472.8234 465.2159 456.4215 447.5529
587.1472 583.5533 581.8522 582.1288 584.0173 587.0483 590.2999 593.6492 597.0561 600.666 605.1884 611.4332 619.964 630.5005 642.5344 655.42 668.3287 680.3667 690.6113 698.1995 702.9543 705.3573 705.426 704.5443 703.592 703.7222 705.464 708.4362 711.6841 715.2013 717.8758 719.8101 721.1475 721.6804 721.2448 719.7363 717.2959 714.3862 711.1211 707.9318 704.8845 701.9976 699.4976 696.6512 693.2635 689.1341 683.9078 677.2922 668.815 658.4312 646.2035 632.345 617.3535 601.8194 586.3556 571.6085 557.8946 545.1531 533.3628 522.7946 513.5731 505.4652 498.0193 490.9356 484.5295 479.0243 474.5427 470.4186 466.0265 460.9561 455.5414 450.0125 444.6056 439.4461 434.3032 429.7195 425.9317 423.114 421.1399 419.8984 418.5856 416.5966 413.9556 410.6835 406.7018 402.1449 397.562 392.8685 388.2747 383.1247 377.7174 371.431 364.9683 358.4936 352.3167 346.8927 342.2061 339.291 337.5556 336.3957 335.472 334.9146 335.0565 336.3997 339.3158 343.5528 348.9087 354.7075 361.0053 368.4272 377.7186 389.5419 404.3744 422.0644 441.6531 461.3914 479.0305 492.2291 499.0761 497.252 488.0496 474.0546 457.2289 439.0034 420.2031 401.1984 382.1999 363.4214 345.1696 327.8352 311.711 297.0442 284.1409 273.109 263.9097 256.3174 250.1382 245.3506 242.4147 240.6933 239.4178 238.3303 237.4726 237.337 238.7224 241.372 245.4409 250.2723 254.8102 258.2594 259.9414 259.7106 257.4573 253.2309 247.9505 242.3106 237.653 235.2531 235.5833 238.382 242.7628 246.9709 248.9848 247.6984 242.7775 235.2518 226.7368 219.6816 215.9177 216.6584 222.5327 233.557 248.6384 266.2429 284.5939 301.9113 316.6023 327.6065 334.6747 338.2115 339.3748 338.9822 337.3383 333.8553 327.8336 318.5839 306.2027 291.8528 276.9062 262.7468 250.661 240.2607 231.6943 226.0836 222.2093 219.107 215.9427 212.5936 208.9157 204.6999 201.0296 199.1965 198.2276 197.2348 196.4846 195.6606 194.5649 193.1562 191.622 190.4234 190.0147 189.9071 189.6986 189.0075 188.782 188.7438 188.5624 187.6489 185.3741 182.1619 178.3736 173.972 170.8184 170.9712 174.4324 179.9873 186.8813 194.1456 201.3312 207.9467 213.4677 217.8086 221.2123 223.493 224.511 224.58 224.1121 223.561 223.5504 225.1542 228.818 234.0861 240.7542 248.1432 255.514 262.4357 268.4808 273.3655 276.8728 279.3198 281.0994 282.6457 284.0145 284.5178 283.3467 279.5025 272.1856 261.7654 248.5813 233.43 217.2293 201.0573 185.9059 172.7039 162.1709 154.4048 148.7336 144.4379 141.5295 139.8625 139.2878 139.6758 140.8885 142.7617 145.1078 147.6524 150.0347 152.2624 154.1511 155.6488 157.2561 158.8662 160.9633 163.7537 167.6268 172.3353 178.117 184.8943 192.9778 202.0329 211.8514 222.4183 233.8816 246.3369 259.8931 274.6754 290.6556 307.6587 325.3076 343.0208 360.1045 375.9339 390.0815 402.4389 413.27 423.0173 432.5238 442.4004 453.0038 464.078 475.0443 484.9979 493.1554 499.4252 504.8367 508.039 509.7136 511.0219 512.3382 513.4213 513.2958 510.736 505.7489 498.652 490.3787 482.3484 475.6874 470.835 467.2997 464.1234 460.273 454.9844 448.1879 440.2548 432.1253
604.3887 599.6482 596.6401 595.5079 595.9675 597.5248 599.4188 601.4552 603.7111 606.3152 609.4961 614.144 621.0263 629.87 640.059 650.9563 661.9187 672.328 681.343 688.3602 693.246 696.4419 697.8994 698.6368 699.6315 701.637 705.3282 709.9948 714.8658 719.5753 723.469 726.2973 728.12 728.6793 727.9855 726.0198 723.1736 719.9441 716.3653 712.762 709.4242 706.1487 703.0816 699.8215 696.0592 691.59 686.2578 679.4635 670.8085 660.2203 647.7379 633.5686 618.2607 602.4574 586.825 572.0837 558.5784 546.2333 534.9862 525.1428 516.6751 509.0922 502.0002 495.3066 489.1939 483.8853 479.5046 475.1902 470.011 464.1573 457.8105 451.2298 445.1545 439.6025 434.4722 430.2476 427.3986 425.7126 424.8903 424.6066 424.0659 422.235 419.1603 415.3932 410.1401 404.4842 399.0102 393.6064 388.5408 383.3475 378.1413 372.2447 366.2791 360.0835 354.2176 349.0026 344.4785 341.1587 339.0972 337.5943 336.0444 334.4561 333.1502 332.9642 334.9249 338.9379 344.2959 350.4469 357.3361 365.2064 374.7524 386.6588 401.244 418.4565 437.6096 457.2437 475.3086 489.5209 497.8139 498.18 490.8345 478.3534 462.4758 444.5192 425.3647 405.5571 385.5535 365.8446 346.9615 329.404 313.5033 299.467 287.3912 277.1882 268.8333 262.1133 256.8758 252.8912 250.4837 248.9378 247.4707 245.7416 243.9551 243.0436 243.9725 246.6217 251.138 257.0204 262.7334 267.3692 269.8021 269.7877 267.2468 262.348 256.1573 249.4742 243.869 240.9311 241.2768 244.4805 249.5698 254.4403 257.1012 255.9787 250.7969 242.897 234.0383 226.7686 222.8987 223.7857 229.9843 241.1965 256.1013 272.9911 289.9217 305.0378 316.8037 324.3615 327.8169 328.3962 327.7115 326.5195 325.0082 322.5287 318.1147 310.795 300.4061 287.83 274.4095 261.5135 250.1459 240.4495 232.7114 227.4885 223.774 220.0898 216.5829 212.9287 209.0911 204.9777 201.6156 199.7614 198.8349 198.3113 197.9515 197.4976 196.7509 195.6028 194.1523 192.8821 192.0959 191.5786 191.0183 190.2627 190.056 190.0627 189.9885 189.1616 186.465 182.9384 179.0923 175.2216 172.8672 173.3422 176.7369 182.3405 189.5915 197.3821 205.1495 212.4914 218.9807 224.1573 228.2632 230.8271 231.944 232.0404 231.637 231.3319 231.8886 234.2532 238.9297 245.3662 253.078 261.2337 269.0322 276.0104 281.7311 285.9503 288.2398 288.8979 288.7495 288.3427 287.7508 286.6847 284.3351 279.7874 272.2524 261.8607 248.8018 233.7352 217.5288 201.2575 185.9516 172.6337 162.081 154.395 148.8488 144.6695 141.845 140.232 139.701 140.1541 141.4864 143.5548 146.2027 149.1809 151.9314 154.7961 157.723 160.0397 162.4974 164.9735 167.872 171.2789 175.5306 180.5849 186.4421 192.9987 200.5765 208.9521 218.0684 227.9793 238.9073 251.0396 264.5083 279.3527 295.5345 312.8307 330.7641 348.7682 366.2248 382.5409 397.3003 410.3793 421.9791 432.4107 442.2601 452.1596 462.4329 472.8873 483.0175 491.8783 498.7229 503.5148 507.8251 509.5437 509.4788 509.0492 508.4737 507.2681 504.5517 499.6832 492.5123 483.5261 473.6775 464.3977 456.7843 451.2893 447.4692 444.386 440.9948 436.5071 430.7859 424.0224 417.003
620.385 614.9991 611.1318 608.9409 608.2232 608.5141 609.2453 610.1669 611.3109 612.8647 615.0781 618.6127 623.838 630.9178 639.145 647.8824 656.6312 665.1075 672.6355 678.8666 683.5677 687.0885 689.4495 691.5402 694.4148 698.4015 703.7889 710.0925 716.5133 722.4598 727.7202 731.5737 734.0367 734.9468 734.4258 732.5576 729.7828 726.3085 722.4766 718.6262 714.7399 710.8597 707.1434 703.3461 699.1274 694.3353 688.6849 681.5419 672.5775 661.5758 648.6186 633.9938 618.3043 602.2489 586.5363 571.9198 558.7729 547.0233 536.5751 527.6566 520.0629 513.2874 506.7343 500.2263 494.1192 488.7904 483.8413 478.7157 472.8135 466.2521 458.9214 451.5394 444.9946 439.2814 434.287 430.4904 428.5887 427.9083 427.9447 428.3167 428.361 426.4266 421.9088 416.8786 410.31 403.4504 396.9935 390.9111 385.4306 380.4079 375.724 370.5726 365.4063 360.2284 355.2561 350.7592 346.9888 343.9695 341.693 339.9684 337.8056 335.2161 332.3775 330.4755 331.4919 335.2845 340.7244 347.1347 354.3593 362.6165 372.3508 383.9875 397.9147 414.228 432.4888 451.5331 469.508 484.2163 493.5674 495.7869 490.5088 479.8347 465.1969 447.8228 428.6382 408.3612 387.7111 367.4598 348.3522 330.9666 315.6691 302.5825 291.5702 282.6086 275.1858 269.4116 264.8976 261.5984 259.4665 257.7424 255.6834 253.0519 250.473 248.9452 249.2264 251.6869 256.6464 263.6158 270.6759 276.5172 279.7876 280.1298 277.4491 272.0142 265.0013 257.4769 251.1949 247.7258 248.2255 251.888 257.5045 262.903 266.0392 265.0506 259.6997 251.4854 242.3492 234.905 231.163 232.1707 238.3675 249.3278 263.543 279.1431 294.1114 306.5085 314.7984 318.5718 318.8709 317.163 315.2544 313.8106 312.7849 311.4476 308.673 303.3141 295.0481 284.3183 272.3972 260.6079 249.8913 240.7694 233.6911 228.6285 224.563 220.8218 217.3069 213.4318 209.4437 205.4923 202.3403 200.423 200.0079 200.1288 200.399 200.4772 200.0965 199.1246 197.5372 196.0179 194.7539 193.7608 192.8891 192.1172 191.7039 191.4446 190.9842 189.756 187.0503 183.5114 179.8122 176.6959 175.24 176.2359 179.755 185.5535 192.9135 201.127 209.6327 217.937 225.4958 231.7067 236.5477 239.6009 240.9346 241.0771 240.6649 240.4055 241.121 243.6881 248.6503 255.5179 263.6287 272.0202 279.8235 286.5198 291.7812 295.1661 296.199 294.9979 292.9055 290.6098 288.6865 286.5343 283.4367 278.568 271.0005 260.8236 248.2106 233.6012 217.8005 201.794 186.6056 173.3432 162.8177 155.1616 149.6343 145.6426 142.9395 141.3375 140.7293 141.0666 142.2871 144.2743 146.8824 149.8874 152.9586 156.1659 159.7226 163.2997 166.9402 170.4168 174.3279 178.7054 183.5158 189.0166 194.9413 201.3778 208.4299 215.9571 224.2072 233.3196 243.6517 255.4629 268.8463 283.8133 300.3093 318.0104 336.3587 354.7377 372.5319 389.2073 404.4384 418.1167 430.3393 441.3736 451.5732 461.4053 471.1897 480.7493 489.5313 496.7027 501.4959 504.194 505.7736 505.4993 503.8277 502.0504 500.0964 497.3102 492.8895 486.4247 477.7083 467.3602 456.3743 446.1106 437.6836 431.5903 427.4969 424.5412 421.7068 418.1838 413.7526 408.4868 403.0181
634.5688 629.0194 624.7198 621.7676 620.1263 619.4199 619.1923 619.1906 619.4318 620.0734 621.4157 624.0164 628.0875 633.5322 639.799 646.4045 653.0095 659.681 665.7296 670.9951 675.3041 678.7668 681.7288 684.8832 689.207 694.6464 701.6642 709.557 717.4628 724.6658 731.0432 736.2252 739.4814 740.9872 741.0354 739.6628 737.0547 733.4543 729.5187 725.2598 720.8216 716.2731 711.7954 707.3684 702.5183 697.3944 691.3943 683.9812 674.6212 662.9666 649.2985 634.0699 617.9391 601.6746 586.0072 571.6683 559.0477 548.0875 538.6707 530.7917 524.1971 518.2629 512.0189 505.6075 499.3163 493.3566 487.5077 481.3002 474.6137 467.2523 459.2211 451.3879 444.6641 439.0623 434.4661 431.2249 430.1296 430.1013 430.4262 430.6611 430.2819 427.7542 422.1286 415.4333 407.574 399.5484 392.149 385.7092 379.9781 375.1556 371.0161 367.1165 363.2037 359.4484 355.7446 352.4042 349.6157 347.2882 345.4191 343.4708 340.6671 337.3144 333.2611 330.1803 330.1166 333.1922 338.4108 344.8173 352.3087 360.9297 370.6413 381.6748 394.4831 409.4225 426.3117 444.1979 461.4612 476.0756 485.9572 489.5981 486.7241 478.1685 465.0431 448.5384 429.686 409.4199 388.7148 368.5539 349.8278 333.1859 318.9545 307.1774 297.5349 289.7086 283.1851 278.0392 273.8555 270.8388 268.5961 266.3471 263.4735 260.0584 256.6152 254.3039 254.0298 256.5743 262.1825 270.1164 278.507 285.6241 289.9148 290.8523 288.2336 282.4369 274.7182 266.5315 259.8985 256.0133 256.5634 260.6682 266.7908 272.5166 275.8023 274.801 269.3015 260.8403 251.5574 244.1304 240.5301 241.5529 247.4249 257.6697 270.6442 284.3879 296.8882 306.148 310.6454 311.0475 308.9129 305.7148 303.2013 301.9 301.5826 301.4329 300.2101 296.6232 290.2745 281.3172 270.8121 259.9692 249.802 241.0751 234.3561 229.3711 225.349 221.7629 218.2425 214.0428 209.883 206.1951 203.4809 202.093 202.1374 202.9951 204.0769 204.7944 204.5199 203.4552 201.6102 199.7616 197.9548 196.4861 195.2572 194.2892 193.5728 192.9188 191.9666 190.2834 187.6958 184.2794 180.8137 178.4223 177.815 179.4543 183.2194 189.3776 197.1825 205.8295 214.9198 224.1199 232.8078 240.2923 246.073 249.7494 251.3772 251.5459 250.9833 250.4781 250.8808 253.0044 257.3932 263.7485 271.4912 279.479 286.8474 292.9713 297.685 299.827 299.6848 297.1663 293.701 290.1648 287.0388 284.0371 280.4428 275.4939 268.1503 258.406 246.438 232.5641 217.5019 202.1519 187.489 174.5622 164.2014 156.5807 151.0382 147.2417 144.6457 142.9737 142.1503 142.1929 143.0954 144.7776 147.1054 149.8839 152.812 156.2698 160.2631 164.7031 169.5619 174.5253 179.778 185.3575 191.0472 197.1176 203.2249 209.6406 216.2214 222.9648 230.3932 238.7467 248.4489 259.8587 273.151 288.3387 305.2337 323.3875 342.1722 360.9144 378.9816 395.9075 411.4224 425.4555 438.0944 449.4872 459.8892 469.6024 478.7697 487.2151 494.3663 499.4711 502.0879 502.5103 501.3232 498.7561 495.3745 492.2527 489.078 485.1078 479.605 472.0864 462.3796 451.122 439.308 428.2748 419.1259 412.4314 408.0479 405.2349 403.0335 400.6177 397.6461 394.1209 390.5952
646.7453 641.449 637.1615 633.795 631.4468 629.9014 628.7909 627.902 627.3661 627.3345 628.0384 629.8307 632.9297 637.2922 642.0516 646.9955 651.8674 656.8522 661.4332 665.7908 669.5512 672.8058 676.3621 680.3556 685.4679 691.9814 700.077 709.0417 718.0653 726.4449 733.8984 740.1832 744.5653 747.0159 747.8757 747.0388 744.6625 741.2452 737.2074 732.5604 727.6553 722.3782 717.1982 711.9874 706.7477 701.1949 694.8155 686.9197 676.9009 664.5459 650.166 634.3208 617.7732 601.4174 585.9986 572.1487 560.2491 550.2361 541.957 535.2847 529.7933 524.3681 518.1683 511.413 504.4895 497.5858 490.5641 483.42 475.9785 467.8478 459.3893 451.4385 444.8238 439.5717 435.7589 433.4796 432.8179 433.0026 433.2365 432.8 431.0152 427.0711 420.1907 411.8947 402.8929 394.0378 386.0425 379.2971 373.5652 369.0919 365.6916 362.829 360.44 358.16 355.8434 353.7081 351.896 350.3667 349.1075 347.2289 343.8588 339.6985 335.0602 331.1143 330.0779 332.3728 337.021 343.2707 351.0888 359.8999 369.3274 379.4639 390.8296 404.0074 419.1117 435.4366 451.5832 465.7305 475.9484 480.7928 479.9016 473.5165 462.0824 446.7181 428.593 408.8838 388.7976 369.4353 351.733 336.3465 323.541 313.2186 304.9134 298.2268 292.444 287.6104 283.3979 280.1351 277.3519 274.3358 270.756 266.5821 262.1953 259.0449 258.1442 260.7717 267.2014 276.2021 285.9435 294.4987 300.1074 301.9983 299.724 293.8713 285.7383 277.0918 270.0392 265.9573 266.5205 270.86 277.2464 283.0992 286.2209 285.0241 279.3496 270.6595 261.3457 254.1007 250.6878 251.6936 257.0707 266.1385 277.262 288.504 298.0247 303.9871 305.0903 302.6473 298.7888 294.8449 292.31 291.4992 292.0518 293.1024 293.2739 291.1068 286.3746 278.8902 269.5652 259.5344 249.8652 241.4642 234.999 230.097 226.275 222.7586 219.0163 214.6599 210.4224 207.0346 204.7742 203.9724 204.654 206.3533 208.3454 209.5434 209.6594 208.643 206.5762 204.1818 201.6952 199.7267 198.0485 196.7855 195.7233 194.7138 193.4124 191.5326 188.9857 185.709 182.6413 180.6784 180.7407 183.0701 187.3172 193.7158 201.9194 211.1736 221.0356 231.1451 240.9272 249.6256 256.4704 260.8473 262.8175 262.9742 262.0992 261.0567 260.7427 261.9077 265.1017 270.1999 276.8658 283.7385 290.1116 295.436 299.0267 300.0057 298.865 295.5071 291.2093 286.8889 282.89 279.3047 275.3614 270.2908 263.3951 254.3029 243.1963 230.3283 216.3267 202.0202 188.3226 176.0616 166.0689 158.5224 153.061 149.3503 146.8131 144.9696 143.7858 143.3892 143.8289 145.0593 146.972 149.4122 152.0498 155.6278 160.0474 165.1746 170.9698 177.3734 183.927 190.652 197.4813 204.3366 210.9026 217.4158 223.6292 229.8663 236.5586 244.1525 253.2874 264.4189 277.7357 293.1727 310.4508 329.054 348.2722 367.3658 385.6802 402.755 418.3459 432.4295 445.1542 456.6437 467.0201 476.4256 484.8088 492.0132 497.6333 500.6526 501.1877 499.3477 495.621 490.8213 485.766 481.2878 476.9238 471.9984 465.7108 457.5245 447.2603 435.4207 422.9882 411.3129 401.5272 394.2661 389.5919 386.9329 385.4114 384.1779 382.764 381.1262 379.7508
657.0564 652.4016 648.5052 645.1072 642.1928 639.8475 637.7903 635.8574 634.4911 633.8788 634.2115 635.6979 638.3929 641.8932 645.8033 649.7631 653.5432 657.1011 660.4338 663.9099 667.1328 670.2786 674.0259 678.3887 683.775 690.8449 699.4309 708.9578 718.7695 728.2547 736.929 744.2561 749.7316 753.0374 754.6324 754.3826 752.4796 749.3725 745.2146 740.3473 734.9917 729.1285 723.2294 717.5386 711.9056 705.9658 699.0585 690.4686 679.7548 666.7559 651.7556 635.4117 618.6414 602.4135 587.4819 574.3878 563.4559 554.5696 547.4889 541.923 536.9811 531.4635 525.0048 517.683 509.8075 501.7419 493.6044 485.5472 477.3535 468.7964 460.3026 452.5779 446.3185 441.4552 438.3915 436.8051 436.3741 436.441 436.1809 434.6249 430.9849 425.2276 417.0821 407.6996 397.9993 388.7791 380.6248 373.7116 368.1641 363.8846 361.4439 359.8925 358.5557 357.2517 355.9552 354.7803 353.7601 352.8075 351.7081 349.818 346.4949 342.026 337.281 332.8643 330.9547 332.2304 336.2286 342.3185 350.1914 358.8698 367.7108 376.7191 386.5109 397.8531 411.0857 425.7331 440.6823 454.2591 464.5983 470.3817 470.9871 466.3648 456.6116 442.6389 425.679 407.0937 388.2323 370.286 354.1853 340.4889 329.3411 320.6013 313.5379 307.7271 302.3806 297.5231 292.9159 288.9845 285.3584 281.589 277.3121 272.2922 267.1787 263.0814 261.5857 264.3264 271.4597 281.5776 292.7633 302.9571 310.1808 313.3288 311.7832 306.2491 298.1677 289.4845 282.3631 278.3667 278.7163 282.8148 288.884 294.4043 297.0308 295.4225 289.4603 280.5999 271.4552 264.4695 261.2753 262.2905 267.0908 274.5656 283.2736 291.4056 297.367 299.4802 297.8107 293.6542 289.0074 285.1292 283.1424 283.1307 284.6551 286.8253 287.9318 286.6036 282.8273 276.5746 268.3672 259.2228 250.2052 242.2783 236.2037 231.4671 227.8819 224.3248 220.1609 215.6536 211.3421 208.0825 206.0777 205.7615 207.1209 209.6826 212.5849 214.5262 215.0811 214.1537 211.9626 209.1765 206.1214 203.4502 201.22 199.6442 198.2038 196.9213 195.3554 193.2833 190.5887 187.6399 185.0684 183.69 184.2149 186.974 191.5633 198.4015 207.0148 216.7886 227.3181 238.2506 249.0382 258.8557 266.7649 272.0094 274.4147 274.558 273.2515 271.4519 270.1361 269.9572 271.4213 274.6115 279.6041 284.9502 289.8763 293.5128 295.7756 295.9709 294.1619 290.5095 285.9792 281.2572 276.8751 272.7537 268.6096 263.5385 257.0979 248.7359 238.5934 226.9341 214.2432 201.2479 188.7309 177.3355 167.8175 160.4268 155.1747 151.503 149.1744 147.1055 145.4507 144.5434 144.4783 145.2113 146.6288 148.5646 150.9332 154.7171 159.551 165.2199 171.7488 179.2401 187.0779 194.9023 202.6828 210.3381 217.6122 224.4446 230.5805 236.495 242.5718 249.6971 258.5513 269.5582 282.935 298.6334 316.3096 335.3565 354.9968 374.4091 392.8716 409.9138 425.3608 439.2399 451.6912 462.8878 472.951 481.8822 489.4998 495.4743 499.4144 500.6959 499.4423 495.514 489.664 482.8705 476.1942 470.325 464.7517 458.9099 451.8734 443.1228 432.46 420.2856 407.4675 395.317 385.0594 377.3738 372.4633 369.9888 369.1794 369.1455 369.3373 369.6806 370.5224
665.9639 662.2807 659.0485 655.8456 652.491 649.3759 646.3466 643.4001 641.2698 640.1268 640.1783 641.5372 644.1101 647.4424 650.9147 654.3597 657.5674 660.2347 662.7253 665.5166 668.2108 671.1338 674.8641 679.2772 684.72 691.5923 700.0103 709.5932 719.8206 730.1201 739.8849 748.452 755.1776 759.4832 761.7438 762.0746 760.6812 757.7719 753.462 748.3863 742.571 736.3962 730.1562 724.0709 718.1925 711.8143 704.3471 695.0841 683.6822 670.0471 654.5703 637.993 621.3044 605.5029 591.3693 579.3443 569.6337 561.9772 555.915 550.8207 545.8308 539.8623 532.7305 524.4737 515.5801 506.5159 497.4351 488.5255 479.771 471.1886 463.0745 455.7774 450.2823 445.7406 442.956 441.5114 440.8426 440.3576 439.2408 436.3441 430.6145 422.924 413.7367 403.7666 393.8483 384.729 376.9679 370.3592 365.051 361.1225 359.3746 358.4679 357.6673 356.9637 356.324 355.7472 355.2051 354.5406 353.4731 351.558 348.382 343.6155 338.539 333.7464 331.1823 331.7022 335.1751 341.0382 348.656 356.8474 364.818 372.6126 381.026 390.7558 402.3461 415.5742 429.4988 442.5348 452.8677 459.2837 460.9221 457.5996 449.3063 436.7848 421.2625 404.186 387.0029 370.938 356.8156 345.0466 335.7194 328.5257 322.5115 317.3002 312.1306 306.9825 301.7297 296.8857 292.3692 287.8715 282.7925 277.113 271.3014 266.7165 265.1874 268.1207 275.6879 286.8101 299.3875 311.167 320.0293 324.5168 324.0505 319.2813 311.7794 303.5444 296.7157 292.886 292.9512 296.4204 301.5534 306.175 307.9739 305.7411 299.3845 290.3767 281.4413 274.7901 271.7935 272.8918 277.1141 282.9284 289.0321 293.6498 295.5574 294.1843 290.0729 284.7097 280.0601 277.0208 276.0792 277.0972 279.5324 282.1234 283.4172 282.5688 279.4198 273.951 266.936 258.9986 251.0333 243.9625 238.7516 234.3431 230.8275 227.0631 222.251 217.403 212.9533 209.3555 207.2876 207.3576 209.4218 212.8987 216.97 219.6995 220.7314 219.915 217.6376 214.2956 210.662 207.4618 204.9066 202.8312 201.0006 199.5674 197.8178 195.6976 192.9621 190.0749 187.7484 186.7064 187.3664 190.1963 195.3328 202.5954 211.6029 221.8196 232.9026 244.5369 256.1969 266.9846 275.8348 281.9427 284.8266 285.0089 283.2806 280.7692 278.3498 276.6808 276.437 277.5393 280.0794 283.317 286.4508 288.4517 289.32 288.7287 286.5457 282.8278 278.4045 273.6765 269.2297 264.9089 260.6606 255.7449 249.5974 241.9107 232.7573 222.3517 211.1258 199.6469 188.5148 178.2413 169.3567 162.3187 157.4857 154.0137 151.427 149.076 146.9173 145.5639 145.1004 145.4662 146.569 148.2672 150.4332 154.2565 159.3685 165.5026 172.6338 180.9184 189.7536 198.6547 207.3803 215.7094 223.5132 230.7418 237.1464 242.9744 248.884 255.7068 264.4373 275.4717 289.0251 305.0097 323.0544 342.5193 362.5614 382.2598 400.787 417.6689 432.7609 446.1481 458.0668 468.7318 478.2814 486.5904 493.3285 498.0583 500.3255 500.1863 497.3956 491.7908 484.1678 475.6701 467.3948 460.0142 453.1148 446.1841 438.3021 428.915 417.8589 405.4782 392.5215 380.1901 369.6994 361.8361 356.8668 354.6513 354.5406 355.721 357.5442 359.8846 363.0367
674.2031 671.7061 669.2009 666.231 662.5721 658.7601 654.8051 651.0984 648.2213 646.4256 646.1797 647.5468 650.0386 653.3866 656.9793 660.3042 663.3053 665.9001 668.3208 670.5093 672.6533 675.3344 678.7351 682.7548 687.8898 694.2229 702.011 711.2399 721.5609 732.4124 743.0579 752.683 760.5378 766.0109 769.2206 770.1519 769.1116 766.3018 761.9442 756.7064 750.6553 744.2705 737.8986 731.6523 725.5359 718.8916 710.9156 701.0624 689.0583 674.9388 659.1959 642.6862 626.4106 611.3177 598.1864 587.4177 578.9682 572.2672 566.764 561.6149 556.096 549.3462 541.2654 531.9431 522.0414 512.0644 502.309 492.9919 484.2148 476.1342 468.9899 462.6716 457.453 453.0696 450.0949 448.0754 446.4321 444.7198 442.0756 437.598 430.4577 421.3888 411.7145 401.5844 391.8047 383.031 375.733 369.5627 364.5393 360.8048 359.2438 358.6266 358.1926 357.5973 357.0898 356.7303 356.3448 355.7091 354.5081 352.3714 348.9519 343.8719 338.4585 333.2899 330.1905 330.0995 333.0388 338.4476 345.4385 352.8217 359.7764 366.6946 374.0688 382.5355 392.9695 405.2512 418.4932 431.1555 441.4804 448.255 450.5079 448.0302 440.8341 429.6324 415.5752 400.1729 384.8954 370.9256 358.9961 349.3248 341.7728 335.8062 330.5675 325.6776 320.5606 314.9861 309.0915 303.3648 298.0638 292.7442 287.0741 280.8325 274.7855 269.8182 268.3915 271.7332 280.0744 292.1319 305.9063 319.08 329.4719 335.3967 336.3004 332.8143 326.4103 319.0551 312.7374 309.0352 308.658 311.1617 314.9962 318.1794 318.7695 315.6617 308.7847 299.6732 290.9703 284.5881 281.5345 282.8589 286.4377 290.7295 294.3483 295.7128 293.8624 289.351 283.1046 276.8332 272.3953 270.344 270.5998 272.5789 275.6781 278.3853 279.4264 278.5793 275.7503 270.9569 265.1551 258.9282 252.6397 247.3482 242.9924 239.186 235.3452 230.8275 225.3305 219.6944 214.7307 210.2494 208.2181 208.8386 211.8214 216.4727 221.303 224.7688 226.2913 225.3492 222.7825 219.045 214.9515 211.3016 208.6032 206.2644 204.2683 202.5271 200.6122 198.5462 195.7164 192.7345 190.4084 189.5231 190.1197 192.9022 198.4529 206.1392 215.4545 225.9967 237.5019 249.6622 261.8894 273.292 282.7729 289.5185 292.8559 293.2237 291.3719 288.2553 284.6489 281.4377 279.4282 278.152 278.0497 278.7828 279.675 280.0904 279.8098 278.579 276.2596 272.8387 268.7981 264.4823 260.2648 256.1166 251.8467 247.0965 241.2246 234.2108 226.0294 216.8144 207.0082 197.0639 187.4657 178.5652 170.6694 164.3247 159.9196 156.4791 153.4396 150.3314 147.951 146.4167 145.7755 145.9817 147.0083 148.7836 150.7605 154.7006 160.0698 166.7034 174.4301 183.3334 192.8666 202.54 212.0266 221.0631 229.4556 237.0931 243.775 249.8601 255.9005 262.8356 271.6068 282.7089 296.4088 312.6559 331.0515 350.8781 371.2302 391.1307 409.6636 426.2762 440.81 453.3776 464.3747 474.1846 483.0016 490.6933 496.8701 500.4402 501.5662 500.0735 495.7571 488.7319 479.597 469.5261 459.5821 450.4577 441.9895 433.691 424.8046 414.6844 403.1894 390.6965 377.8461 365.6368 355.2487 347.5215 342.8131 341.0173 341.6044 343.9702 347.4423 351.7629 357.1939
682.5875 681.2217 679.389 676.6533 672.797 668.3964 663.6216 659.1791 655.4294 652.9279 652.2634 653.4799 656.0872 659.6831 663.5276 667.2327 670.4945 673.3802 676.1036 678.1922 680.0275 682.2415 685.1865 688.7661 693.0412 698.5552 705.5415 714.1301 724.273 735.4459 746.7891 757.3134 766.1552 772.6017 776.6877 778.1601 777.3952 774.6769 770.4695 765.1781 759.121 752.629 746.2405 740.0482 733.8303 727.1035 718.8324 708.557 696.1198 681.7508 666.0297 649.834 634.2319 620.1423 608.1863 598.609 591.0928 584.958 579.4915 573.8872 567.4589 559.6772 550.5354 540.2542 529.5604 518.9968 508.9635 499.709 491.3136 483.9024 477.512 471.746 466.7455 462.2673 458.6945 455.5666 452.6015 449.4264 445.1626 439.2059 431.1839 421.7109 411.6501 401.5986 392.1773 383.8604 376.9793 371.2202 366.5571 362.8774 360.9298 360.0979 359.5963 358.7108 358.0942 357.8063 357.3529 356.5567 355.0885 352.5826 348.7458 343.2773 337.4693 331.8539 328.289 327.4254 329.5311 334.0059 339.957 346.3413 352.4389 358.6104 365.297 373.1049 383.0191 394.9409 407.9337 420.4617 430.8721 437.8663 440.4413 438.4313 431.9344 421.8021 409.1107 395.2775 381.8118 369.8439 359.9413 352.1752 346.2119 340.9918 336.3299 331.4311 326.302 320.4281 314.2642 308.0316 301.9507 296.0688 289.9191 283.4752 277.266 272.3827 271.4856 275.5795 284.7714 297.7381 312.5336 326.8885 338.6505 346.0581 348.5482 346.6951 341.7503 335.5312 329.8254 326.1092 325.0819 326.3516 328.5402 329.9123 328.9427 324.6516 317.0221 307.7594 299.1964 293.1526 290.5943 291.4391 294.1606 297.1485 298.7316 297.4861 292.3936 285.338 277.5468 270.6671 266.4857 265.343 266.9036 269.8373 272.8065 274.8186 275.1869 273.8857 271.1423 267.4836 263.1908 259.1142 255.0606 251.5065 248.4059 244.9719 240.7635 235.4313 228.8355 221.9702 215.8333 210.9458 209.1702 210.56 214.7776 220.4014 225.9198 229.5838 231.002 230.0439 227.2407 223.0179 218.5996 214.6843 211.7576 209.4614 207.4662 205.6589 203.5855 201.226 198.4232 195.3219 192.9304 191.9133 192.5657 195.3843 200.7287 208.4407 217.9012 228.7054 240.5984 253.2388 265.913 277.6992 287.6823 294.9942 298.7255 299.2793 297.3275 293.5217 288.9025 284.2704 279.9257 276.2772 273.569 271.7126 270.4602 269.2804 267.9008 266.0615 263.6946 260.7034 257.3037 253.6586 249.9807 246.2304 242.1555 237.6175 232.0591 225.6119 218.2253 210.1099 201.7309 193.3709 185.4956 178.3416 171.8929 166.6658 162.4277 158.7696 155.0514 151.3857 148.8484 147.2712 146.6508 146.8755 147.9627 149.8209 152.2272 156.5166 162.2029 169.3555 177.744 187.1642 197.1824 207.3723 217.397 226.9641 235.7914 243.8559 251.0313 257.614 263.994 271.2717 280.2025 291.4189 305.2839 321.7482 340.4115 360.5133 381.085 401.0695 419.4706 435.6662 449.4526 460.9618 470.7555 479.3838 487.1356 493.8153 499.2125 501.9188 502.0167 499.3829 493.7345 485.4723 475.0582 463.6288 452.2026 441.3697 431.0846 421.1791 411.108 400.1416 388.1823 375.6515 363.0975 351.3811 341.5479 334.3301 330.2287 329.1133 330.5766 334.2165 339.3199 345.5585 352.9962
691.5368 691.1313 689.8976 687.4198 683.4872 678.6279 673.187 667.9905 663.4054 660.3203 659.1188 659.9171 662.5486 666.4799 670.6741 674.8464 678.7572 682.1943 685.3015 687.5461 689.332 691.2703 693.7488 696.8098 700.1432 704.4008 710.3672 718.1913 727.8687 738.9612 750.6594 761.8999 771.6606 779.1208 783.8279 785.7749 785.3718 783.0035 779.1396 773.9482 768.0375 761.5771 755.1921 749.1786 743.0314 736.2982 727.9045 717.446 704.8907 690.5778 675.1639 659.5609 644.8464 631.9081 621.1318 612.503 605.5497 599.5128 593.6343 587.1792 579.5734 570.6053 560.3736 549.3106 538.1121 527.3135 517.368 508.5033 500.6466 493.8285 487.8307 482.2167 477.0945 472.1971 467.7747 463.3745 459.0764 454.2852 448.5798 441.4922 432.9624 423.3575 413.3465 403.5818 394.6592 386.8439 380.2437 374.9674 370.6905 367.1952 364.5463 362.7603 361.4232 360.1303 359.2717 358.9924 358.4244 357.4181 355.6411 352.6995 348.3619 342.4141 336.2542 330.364 326.0516 324.0865 325.1212 328.4422 333.093 338.216 343.4345 348.8714 355.101 362.6967 372.6457 384.7738 397.9828 410.7069 421.3676 428.5851 431.3902 429.6568 423.6413 414.2031 402.5258 390.0204 378.0711 367.7168 359.4414 353.0792 348.1662 343.4739 339.0569 334.2168 329.0709 323.2361 317.0984 310.5278 304.1803 298.0874 291.7795 285.56 279.5667 275.6281 275.644 280.5099 290.3386 303.9303 319.4399 334.7513 347.7767 356.7074 360.9214 360.8423 357.5116 352.4665 347.3381 343.4512 341.5529 341.3201 341.5342 340.769 337.8745 332.04 323.4205 313.7892 305.2781 299.5705 297.1388 297.7045 299.445 300.9278 300.7408 297.6459 290.7329 281.9608 273.0951 265.8938 262.0935 261.7208 264.3963 267.9592 270.5311 271.6233 271.0861 269.1903 266.4684 263.6979 261.0999 259.3193 257.6035 255.8916 253.8657 250.783 246.1559 239.8147 232.2539 224.4668 217.5222 212.3425 210.8307 213.0295 218.2596 224.5709 230.3896 234.1473 235.386 234.133 230.7659 226.1612 221.3884 217.4333 214.5585 212.4526 210.6551 208.9621 206.6697 203.9229 200.7809 197.6443 195.1743 194.0264 194.6247 197.3266 202.3044 209.7844 219.2305 230.2307 242.471 255.4743 268.4254 280.4222 290.6492 298.2614 302.336 303.0475 300.8725 296.5602 290.7862 284.4801 278.3329 272.4753 267.3159 263.0955 259.7846 256.9349 254.4176 251.9805 249.5589 246.9904 244.2466 241.3956 238.46 235.2382 231.6263 227.4339 222.246 216.3364 209.6374 202.6222 195.8299 189.1657 182.9646 177.6317 172.8551 168.6826 164.6171 160.6465 156.6754 152.7187 149.8153 148.241 147.882 148.3564 149.8148 152.2159 155.4695 160.1066 166.121 173.555 182.3694 192.1909 202.5913 213.1757 223.6199 233.6491 242.9269 251.4893 259.2886 266.5034 273.433 281.1455 290.3516 301.673 315.6216 332.2007 351.0016 371.2397 391.8816 411.7657 429.8269 445.3958 458.1848 468.295 476.4994 483.532 489.9613 495.4922 499.6942 501.3172 500.3819 496.7287 490.0671 480.8357 469.5759 457.1838 444.4862 432.0346 419.8971 408.3986 397.1291 385.2587 372.8405 360.324 348.301 337.4579 328.571 322.2773 319.1331 319.0284 321.6542 326.8234 333.6565 341.8284 350.8377
700.8271 701.3879 700.7567 698.6151 694.7639 689.5491 683.5623 677.6834 672.3708 668.5978 666.697 667.0538 669.7852 673.8772 678.5391 683.206 687.7913 691.813 695.3344 697.8749 699.8299 701.7442 703.9202 706.3495 708.6949 711.6248 716.157 722.7857 731.7131 742.5425 754.499 766.3954 777.0342 785.4405 790.861 793.3231 793.407 791.5779 788.1027 783.1349 777.4066 771.0719 764.7864 758.9208 752.8812 746.2125 737.8657 727.4921 715.1832 701.2866 686.5071 671.7891 658.1621 646.3769 636.5978 628.576 621.7759 615.3787 608.6729 601.0426 592.0836 581.8165 570.5881 559.0117 547.6609 537.0579 527.5572 519.1428 511.6817 505.0906 498.9877 493.0348 487.3657 481.7405 476.3268 470.6681 464.985 458.7624 451.9208 444.2484 435.5562 425.9974 416.1895 406.7378 398.1279 390.6184 384.3426 379.5049 375.4571 371.6234 368.5022 365.9329 363.908 362.2018 360.8431 360.3259 359.8604 358.7015 356.694 353.3458 348.5814 342.3937 335.9581 329.6605 324.4905 321.196 321.084 322.9048 325.9477 329.472 333.4652 338.2358 344.1578 351.7894 362.098 374.7781 388.5768 401.8821 413.0933 420.7057 423.9034 422.4344 416.9023 407.9616 396.9581 385.3526 374.4067 365.1205 358.0046 352.462 348.0787 343.6559 339.3353 334.5184 329.4066 323.6907 317.6797 311.1159 304.8336 298.8589 292.8534 287.1738 281.9964 279.3485 280.5527 286.2875 296.7424 310.8099 326.8478 342.9335 357.088 367.5518 373.5551 375.238 373.4352 369.393 364.6329 360.3676 357.362 355.3871 353.3948 350.1436 344.9145 337.1704 327.5403 317.5562 308.9704 303.1635 300.536 300.7275 301.8181 302.3104 300.8983 296.5845 288.6784 279.1172 270.0006 263.1444 260.1232 260.2837 262.8574 265.9833 268.2161 268.4432 267.1016 264.7771 262.3828 260.7738 260.0241 260.0003 260.0215 259.7323 258.5786 255.7284 250.4817 243.5185 235.3811 226.9419 219.6445 215.0152 214.1362 216.9264 222.4961 229.2008 235.2186 238.8509 239.7909 238.1859 234.2511 229.1835 224.1593 220.0976 217.4591 215.7519 214.277 212.5139 210.0892 207.0428 203.5975 200.0827 197.3296 195.9733 196.4235 198.9754 203.6535 210.7599 220.1 231.2722 243.8826 257.2295 270.41 282.5793 292.9221 300.6411 304.9471 305.6855 303.2383 298.2433 291.2252 283.3589 275.4603 267.6205 260.006 253.7591 248.5844 244.0858 240.3598 237.2306 234.6178 232.3219 230.2088 228.2038 226.0767 223.5091 220.4891 216.7151 211.9226 206.5232 200.5474 194.6457 189.3518 184.5311 180.221 176.5271 173.1339 169.792 166.0956 162.165 158.0694 153.6478 150.3698 149.1581 149.4931 150.5546 152.7094 156.0169 160.1372 165.2502 171.6141 179.3933 188.5475 198.7072 209.4595 220.4041 231.2002 241.5793 251.3067 260.34 268.6867 276.5775 284.153 292.3297 301.8203 313.2517 327.1877 343.7363 362.4725 382.614 403.0541 422.5552 440.0125 454.6868 466.1768 474.4552 480.7135 485.8927 490.5347 494.5718 496.9677 497.3259 495.3531 490.7326 483.5901 473.9248 462.238 449.3089 435.8447 422.3596 409.0629 396.067 383.2323 370.2475 357.3203 344.9053 333.5945 323.906 316.3879 311.4762 309.7135 311.0481 315.1596 322.0329 330.74 340.4171 350.3355
709.9024 711.5833 711.6685 709.9816 706.3555 700.9636 694.6035 688.157 682.2119 677.7659 675.2104 675.2112 677.9969 682.1875 687.2637 692.4102 697.5103 702.0065 705.8979 708.7849 711.0392 713.0943 715.0558 716.7288 717.9902 719.5168 722.4105 727.6885 735.6254 745.9683 757.9388 770.2744 781.7087 791.1283 797.6851 800.9617 801.6202 800.2452 797.0994 792.4243 786.9235 780.7992 774.6824 768.9535 763.0356 756.5198 748.4217 738.4695 726.7493 713.6523 699.8572 686.3058 673.9007 663.141 654.0585 646.2717 639.1738 632.0226 624.1251 615.0601 604.6538 593.1422 581.1302 569.3073 558.1451 547.9903 538.9116 530.7142 523.3036 516.4983 509.8293 503.0518 496.3986 489.7752 483.2191 476.3195 469.3199 462.1836 454.7998 446.757 437.8407 428.352 418.8116 409.741 401.5565 394.5041 388.5787 383.6843 379.3503 375.3011 371.7898 368.9762 366.7927 365.1198 363.7554 362.9817 362.2638 360.9043 358.776 355.0828 350.0183 343.8633 337.252 330.5724 324.9284 320.9105 319.5341 319.4341 320.2524 321.6511 323.9845 327.9133 333.4761 341.323 351.8923 365.1147 379.644 393.774 405.782 414.1154 417.9897 417.0237 411.9186 403.5087 393.2476 382.5359 372.3571 363.7249 357.0458 351.5504 347.0661 342.6249 338.2446 333.3051 328.2097 322.5784 316.7881 310.5276 304.6041 299.116 293.896 289.2448 285.5894 284.2841 286.8385 293.482 304.354 318.6762 335.016 351.6111 366.6943 378.6007 386.2618 389.5367 389.0045 385.6884 380.9287 375.9837 371.6075 367.7333 363.3995 357.4921 349.6877 339.984 329.1812 318.6174 309.7805 303.8805 301.2927 301.1384 301.7101 301.5089 299.2678 294.136 285.725 275.9958 267.2488 261.2021 258.9092 259.5635 261.5996 263.7708 264.9307 264.4418 262.8323 261.2162 260.1621 259.7252 259.9954 261.007 261.9735 262.3004 261.3925 258.5809 253.1597 245.9951 237.4758 228.8316 221.7488 218.0372 218.0824 221.5571 227.5199 234.2408 240.0815 243.5241 244.1892 242.1956 237.9179 232.4477 227.326 223.274 221.0216 219.8202 218.6878 216.8675 214.2542 210.8126 206.9577 202.7961 199.5543 197.9146 198.1184 200.3271 204.955 211.9189 221.2381 232.6106 245.597 259.3754 272.9638 285.4483 295.9116 303.5228 307.6135 307.9451 304.8731 298.9645 290.8358 281.6162 272.0833 262.5436 253.2337 244.7343 237.7434 231.6713 226.655 222.706 219.7103 217.4836 215.8864 214.6254 213.2991 211.4966 209.0631 205.6939 201.3235 196.4797 191.3244 186.6495 182.7396 179.6681 177.1185 174.926 172.7329 170.1369 166.7828 162.8632 158.5758 153.8944 150.5848 149.9728 151.1653 153.7989 157.2494 161.2948 166.1441 171.7027 178.4355 186.4304 195.8788 206.3868 217.5457 228.9036 240.0732 250.8067 260.9206 270.3697 279.2337 287.7346 295.9597 304.572 314.3149 325.8207 339.6275 355.9113 374.2806 393.9735 413.8441 432.6028 449.0903 462.514 472.412 478.5984 482.3532 485.0937 487.3974 488.8556 489.4631 488.5917 485.8018 480.7198 473.4369 463.8556 452.3564 439.5314 425.9094 411.9124 397.7668 383.5129 369.3396 355.3866 342.0252 329.8043 319.3864 311.12 305.3459 302.3141 302.4019 305.6681 311.5941 320.4551 330.5482 341.066 351.1149
718.0143 721.0366 722.0405 720.971 717.726 712.4399 705.996 699.1757 692.7915 687.8678 684.8348 684.5129 687.1763 691.5603 696.945 702.4639 707.925 712.7695 716.9241 720.1104 722.662 724.8576 726.4836 727.2816 727.3655 727.4565 728.72 732.3178 739.1765 748.9244 760.7203 773.3781 785.5266 795.9115 803.6001 807.8661 809.2178 808.3076 805.4998 801.2718 796.0605 790.2582 784.3948 778.818 773.0599 766.8033 759.1398 749.8889 739.1113 727.26 714.8605 702.7358 691.588 681.7112 673.0071 665.0364 657.2082 648.9158 639.5419 628.8558 617.0029 604.4217 591.8696 580.024 569.2355 559.5194 550.6423 542.3171 534.5007 526.8784 519.1269 511.1076 503.1974 495.4485 487.6486 479.7736 472.0641 464.5969 456.9282 448.5406 439.4951 430.1611 420.9545 412.3134 404.5566 397.7442 391.8624 386.9487 382.2766 378.1361 374.408 371.4745 369.7223 368.4942 367.2974 366.5993 365.9342 364.5825 362.1241 358.2872 353.0902 346.975 340.2622 333.4938 327.6643 323.0634 320.2421 318.0449 316.9343 316.1719 316.4656 319.0664 324.0049 331.5551 342.2051 355.7852 370.9461 385.8849 398.7989 408.1403 412.8762 412.959 408.8699 401.2804 391.8806 382.0996 372.8175 364.6699 358.0106 352.2044 347.1361 342.0427 337.1774 331.906 326.6607 321.0485 315.4417 309.7419 304.4503 299.8015 295.8995 292.7684 291.0295 291.3968 294.9897 302.3514 313.4293 327.7576 344.1098 360.9301 376.6306 389.6489 398.666 403.2321 403.5939 400.6043 395.4343 389.471 383.5265 377.6699 371.0065 362.6882 352.6484 341.0789 328.9498 317.5229 308.1742 301.9877 299.4398 299.1102 299.2818 298.5793 295.7511 289.9826 281.4425 272.048 263.9091 258.78 256.9823 257.7972 259.7997 261.3746 261.8078 261.0322 260.05 259.3334 259.2378 259.6189 260.3625 261.9821 263.2821 263.6554 262.5781 259.5405 254.0387 246.907 238.5704 230.4069 224.1905 221.6601 222.825 227.1065 233.3042 240.028 245.6862 248.8167 249.1782 246.8957 242.2827 236.8123 231.7599 228.0975 226.1213 225.1407 224.1452 222.3164 219.4871 215.4394 210.7469 205.9116 202.0108 200.065 199.9963 202.064 206.9281 214.0126 223.435 235.0704 248.4571 262.7449 276.8987 289.8446 300.4595 307.7322 310.9019 310.2079 306.0763 299.0161 289.7885 279.4041 268.5614 257.6664 247.032 237.019 228.0854 220.3899 214.0489 209.2217 205.6918 203.401 202.1416 201.4483 200.7899 199.669 197.7274 194.6888 190.7772 186.5488 182.2678 178.8373 176.3668 174.7393 173.6534 172.7504 171.6083 169.7137 166.5065 162.562 158.1751 153.4183 150.2767 151.0657 153.9456 158.0257 162.573 167.5205 173.0017 179.1707 186.2724 194.4713 204.1414 214.9947 226.595 238.3911 249.919 260.9768 271.4101 281.1935 290.5224 299.5292 308.3314 317.3592 327.2855 338.7354 352.2377 368.0027 385.7066 404.5693 423.4483 441.0221 456.0479 467.6686 475.4223 479.1937 480.2561 480.2876 479.946 479.158 477.8774 475.6461 472.1134 466.8489 459.6695 450.5898 439.8632 427.817 414.7146 400.8262 386.3188 371.3536 356.2481 341.4847 327.7199 315.7092 306.3217 299.7029 296.0252 295.3409 297.7039 303.0168 311.3268 321.6102 332.6933 343.5195 352.9873
724.2493 728.7699 730.9877 730.7758 728.1555 723.3034 717.1205 710.2993 703.8607 698.8864 695.8218 695.4308 697.7717 702.1736 707.6772 713.4246 719.1089 724.2046 728.4713 731.8232 734.5192 736.6326 737.699 737.5436 736.3774 735.0131 734.7928 736.8477 742.469 751.4596 762.8856 775.5166 787.9564 798.958 807.5715 812.9652 815.2119 814.9529 812.7516 809.1516 804.2863 798.8439 793.3262 787.929 782.4366 776.588 769.5566 761.2557 751.8039 741.6258 730.9824 720.4706 710.5888 701.446 692.8226 684.2903 675.3605 665.563 654.4897 642.1144 628.923 615.5441 602.7056 591.0224 580.5854 571.0596 562.0197 553.1734 544.4338 535.4803 526.2756 516.9147 507.7002 498.7586 490.0611 481.6906 473.7788 466.2159 458.3534 449.8216 440.8047 431.7597 422.9117 414.5991 406.9157 399.9146 393.9437 388.8869 384.1743 380.0462 376.7187 374.2153 372.7444 371.8834 371.2363 371.0428 370.8013 369.6982 367.3043 363.2827 358.1269 351.9574 345.2957 338.685 332.804 327.9244 323.8116 320.2852 316.9492 313.879 311.8604 313.2065 316.8307 323.2621 333.3672 346.7688 362.1393 377.6484 391.4637 401.9694 407.9466 409.4637 406.9297 400.8015 392.925 384.6441 376.3334 368.5394 361.641 355.4937 349.6841 343.8206 338.2068 332.3927 326.7231 320.9117 315.3599 310.0645 305.5182 301.9536 299.8356 298.7559 298.8232 300.6555 305.1725 312.9685 324.0174 338.0459 354.1067 370.8489 386.8181 400.4932 410.4169 415.7696 416.5189 413.3834 407.4759 400.3005 392.8288 385.1304 376.5144 366.3616 354.5247 341.3947 327.9229 315.4006 305.2622 298.6282 295.5898 294.8413 294.6062 293.4053 290.1447 284.3254 276.1506 267.3433 259.8492 255.3068 253.8758 254.8374 256.9969 258.4161 258.6443 258.0195 257.5592 257.644 258.6902 259.9949 261.3119 262.8016 263.8033 263.7662 262.2598 258.9072 253.3129 246.5096 239.061 232.2539 227.828 226.8273 229.1656 234.0042 240.4299 246.9091 252.0784 254.8108 254.8721 252.425 247.9301 242.5507 237.7506 234.347 232.6894 231.9637 231.1206 229.2944 226.0369 221.2822 215.841 210.3213 206.0615 203.7335 203.4475 205.4766 210.2013 217.5387 227.2859 239.258 253.003 267.6964 282.2292 295.3947 305.9136 312.5242 314.6526 312.3448 306.7255 298.2759 287.9333 276.5493 264.6896 252.7564 241.0691 229.8831 219.5836 210.5331 203.029 197.3488 193.2683 190.8803 189.8204 189.4911 189.268 188.5893 187.0125 184.292 180.8022 177.2146 173.8279 171.5043 170.2415 169.8537 169.8695 169.885 169.4712 168.0628 164.9594 161.1273 156.8503 152.5437 150.2767 152.9039 157.5211 162.941 168.6632 174.4378 180.712 187.5316 195.0665 203.6598 213.6358 224.7742 236.6262 248.641 260.321 271.4737 282.0903 292.1267 301.8046 311.2198 320.4714 329.8503 339.8672 351.1234 364.1075 379.1267 395.8647 413.5633 431.0883 447.0656 460.1593 469.4786 474.4606 475.6497 474.2424 471.685 468.8411 465.8809 462.837 459.3348 455.114 449.7337 442.9236 434.6888 425.1757 414.4838 402.6368 389.5887 375.4029 360.33 344.8071 329.5154 315.4214 303.5428 295.0899 290.016 288.5139 290.3739 295.3094 303.0111 313.2325 324.8552 336.6911 347.4595 355.87
727.1943 733.4204 737.2973 738.2406 736.5684 732.5975 727.0969 720.8473 714.8867 710.3636 707.718 707.4958 709.607 713.9064 719.3686 725.2546 731.0381 736.2774 740.574 743.9634 746.5837 748.2794 748.6311 747.4923 745.1112 742.5911 741.1982 741.7498 746.0858 754.132 764.8907 777.0446 789.2733 800.4962 809.8081 816.3649 819.4552 819.9321 818.5181 815.4829 810.9074 805.8184 800.6887 795.6115 790.6285 785.3949 779.2792 772.2659 764.4171 756.2765 747.5899 738.8012 730.1617 721.5765 712.7751 703.4107 693.1138 681.5829 668.6849 654.7303 640.4235 626.4813 613.5552 602.0432 591.7675 582.1771 572.6318 562.8017 552.6141 542.0289 531.2634 520.5668 510.264 500.5264 491.4183 483.0271 475.2839 467.6861 459.7196 451.2418 442.3066 433.6982 425.1243 416.7499 408.7228 401.4473 395.4235 390.3455 385.865 381.9475 379.2253 377.237 376.2665 376.0155 376.1339 376.5324 376.7515 375.7466 373.416 369.5118 364.312 358.2711 351.7071 345.3286 339.7564 334.7265 329.9644 325.1569 320.1882 315.2692 311.5125 311.2873 312.1309 316.6097 325.4476 338 352.9681 368.5678 382.9602 394.5128 402.0674 405.2014 404.6734 401.0084 395.4551 389.0292 381.7661 374.4463 367.6379 361.2731 355.0056 348.639 342.2014 335.8157 329.5179 323.3549 317.7136 312.6443 308.8162 306.5016 305.9139 306.6928 308.4086 311.5527 316.9103 324.9611 335.7964 349.2681 364.7886 381.1698 397.0272 410.8288 421.0612 426.5973 427.1987 423.4943 416.6794 408.3474 399.5266 390.4137 380.5397 369.2771 356.3754 342.205 327.6926 314.1576 303.0251 295.3339 291.561 290.2479 289.4605 287.6944 283.9916 278.0632 270.2585 262.0073 255.0059 250.8466 249.6068 250.4393 252.3229 253.767 254.2998 254.341 254.666 255.7937 257.6901 259.8129 261.4153 262.629 263.0809 262.4058 260.3383 256.6507 251.1141 244.9673 239.1943 234.5165 232.1137 232.9576 236.7483 242.3856 249.0818 255.3696 260.0173 262.2397 261.9623 259.3863 254.9438 249.8339 245.271 242.3481 241.0138 240.4224 239.5312 237.4359 233.5993 228.3514 222.2413 216.3174 211.9129 209.4148 208.9796 210.9401 215.528 222.9835 232.9794 245.2535 259.2699 274.1017 288.5818 301.4331 311.3153 316.9871 317.8261 313.4586 306.1172 296.4327 285.1805 273.0849 260.6391 248.0907 235.6653 223.6093 212.3327 202.2954 193.8839 187.4967 183.0362 180.5381 179.5546 179.3758 179.3224 178.827 177.4744 175.104 172.0199 169.1187 166.7293 165.3043 164.8449 165.1778 165.871 166.2735 165.927 164.5432 161.9866 158.5784 154.4125 151.0178 150.2858 155.3856 161.7536 168.6837 175.648 182.3896 189.4438 196.8953 204.9732 214.0556 224.346 235.6268 247.4194 259.3284 270.8675 281.8156 292.3247 302.4218 312.2726 321.9475 331.4984 341.099 351.1141 362.1164 374.5009 388.5632 404.059 420.3025 436.1966 450.3623 461.359 468.2857 470.4096 468.9252 465.019 460.0587 454.9417 450.0482 445.484 440.9115 436.1051 430.664 424.3921 417.2363 409.2683 400.3713 390.3507 378.8223 365.6402 351.0787 335.6431 320.1945 305.9898 294.3413 286.152 282.1893 282.5919 287.0456 294.5158 304.6044 316.6221 329.3757 341.5612 351.7633 358.6847
726.5533 734.3195 739.6585 741.9542 741.6029 739.0736 734.9199 729.9766 725.0502 721.3889 719.4919 719.6293 721.8232 726.0798 731.5596 737.6124 743.5172 748.8577 753.1962 756.5204 758.8017 759.8585 759.4404 757.4128 754.0439 750.6732 748.3198 747.9032 750.5628 757.4615 767.1243 778.3574 789.9964 801.0443 810.6134 817.7935 821.6196 822.8379 822.0353 819.5474 815.5977 810.9755 806.3507 801.639 797.3026 792.8223 787.938 782.4681 776.4258 770.5197 764.027 756.9974 749.5163 741.3289 732.1831 721.8196 710.0118 696.6677 682.0214 666.6793 651.4678 637.1041 624.111 612.6585 602.3118 592.3051 581.9324 570.8497 559.1182 547.0033 534.8252 522.986 511.9146 501.7857 492.6349 484.4866 476.9103 469.3406 461.5959 453.5546 445.194 436.6653 427.849 419.0503 410.6487 403.2238 397.2537 392.4002 388.3609 384.9032 382.4569 380.9495 380.5927 381.0104 381.7216 382.4915 382.9135 382.0721 379.8265 375.8988 370.6165 364.7896 358.5741 352.642 347.4344 342.4362 337.3577 331.6333 325.4889 319.0226 313.4794 310.1307 308.9344 311.4446 318.4489 329.4301 343.2786 358.309 372.7792 385.0913 394.1217 399.44 401.6075 401.0681 398.4944 394.0818 388.0929 381.5991 375.2236 368.9773 362.5456 355.9261 349.0336 342.1262 335.3484 329.0276 323.1612 318.2508 314.6482 313.1675 313.797 316.0875 319.181 323.4146 329.4096 337.5486 348.0622 360.9143 375.7928 391.6276 407.0616 420.5276 430.4454 435.5649 435.5681 431.0048 423.3492 414.186 404.5553 394.7388 384.3619 372.6706 359.3534 344.639 329.4274 315.0672 302.9798 294.2697 289.5026 287.0695 285.2485 282.6403 278.6569 272.6009 265.1011 257.332 250.6704 246.3975 244.9178 245.5083 247.1976 248.6684 249.4628 250.0121 250.9883 252.9226 255.4317 258.1348 259.8483 260.8016 260.6584 259.2594 256.6205 252.6571 247.7902 242.7839 239.1948 237.1539 237.3174 240.1927 245.3671 251.9657 259.0815 265.3575 269.6111 271.3977 270.7051 267.8285 263.2518 258.3566 254.0664 251.4635 250.2972 249.6812 248.6049 246.2278 242.0573 236.6704 230.4731 224.605 220.246 217.6648 217.1633 219.2233 223.7749 231.1338 241.0541 253.3108 267.1998 281.6767 295.4866 307.2984 315.6944 319.5539 318.7332 312.9211 304.3103 293.8351 282.1187 269.6672 256.86 243.8789 230.9334 218.3546 206.5365 195.8979 186.8748 179.976 175.5226 173.03 172.0744 171.8643 171.7155 171.1029 169.7012 167.529 165.1005 162.9579 161.4722 160.7812 160.805 161.3063 162.2537 162.6478 162.1396 160.6255 158.4168 155.5034 152.0064 150.3075 153.4175 159.6572 167.3042 175.3784 183.4531 191.2321 199.1326 207.365 216.08 225.579 236.0479 247.1814 258.4928 269.9135 280.9691 291.3726 301.363 311.1508 320.906 330.6558 340.3821 350.1501 360.1879 370.8908 382.6236 395.6422 409.7646 424.4032 438.5059 450.6744 459.5751 464.113 463.5536 459.5501 453.3799 446.3511 439.374 432.9576 427.1944 421.7798 416.5221 411.0898 405.4242 399.446 393.1846 386.3631 378.569 369.0996 357.5868 344.1182 329.1948 313.8294 299.4458 287.5883 279.431 276.0305 278.2442 284.6373 294.3427 306.4978 320.0464 333.7592 346.1483 355.629 360.7809
722.4775 731.5621 738.2883 741.97 743.1 742.2179 739.9044 736.8051 733.347 730.666 730.0881 730.9329 733.5108 737.9891 743.6366 749.9821 756.2114 761.7311 766.1464 769.2531 770.9781 771.3257 770.1812 767.4207 763.3113 759.1786 755.8574 754.488 756.3074 761.5978 769.9246 780.0546 790.8702 801.4089 810.8256 818.2252 822.5848 824.39 824.0907 822.0669 818.7026 814.4863 810.1791 806.0471 802.3997 799.009 795.577 792.0817 788.2874 784.3919 779.8643 774.4307 767.9531 760.0546 750.4739 739.0399 725.6861 710.6512 694.4875 677.9897 662.0397 647.3082 634.1672 622.5634 611.7928 601.0045 589.5885 577.2418 564.1127 550.6808 537.481 524.9506 513.5282 503.3655 494.3411 486.3519 478.8712 471.5717 464.4116 456.9225 448.7522 440.1251 431.1324 422.0755 413.5194 406.1536 400.2064 395.6115 391.9186 389.0498 386.9871 386.0152 386.182 387.1584 388.1962 389.0195 389.2675 388.2997 385.707 381.2764 375.8809 370.1651 364.4791 359.196 354.434 349.7587 344.4901 338.1431 330.9935 323.2153 315.9858 310.1298 306.8226 307.1985 311.9884 320.955 333.1535 347.0113 360.9627 373.5767 383.9043 391.4243 396.4845 399.0928 399.5419 397.8075 393.3456 388.2399 382.8076 377.2813 371.2922 364.8846 358.0569 350.9539 343.9584 337.4847 331.466 326.5175 323.09 322.0324 323.3639 326.549 330.5503 335.5396 341.8586 349.9167 360.1132 372.4319 386.7 401.9255 416.7426 429.5238 438.6124 442.8199 442.0427 436.8996 428.7211 419.1647 409.2948 399.4024 389.0851 377.4982 364.1904 349.2981 333.7156 318.7042 305.6618 295.804 289.6736 285.9691 283.1304 279.8585 275.3461 269.1747 261.6536 253.9823 247.465 242.6952 240.7437 240.7462 241.8105 243.1701 244.1764 245.1403 246.6229 248.9456 251.5474 254.2503 256.0605 256.8936 256.1789 253.9608 250.8592 247.3623 243.6856 240.644 239.4532 240.133 242.9208 248.0353 254.7441 262.4267 270.0621 276.4063 280.4152 281.8258 280.6018 277.2548 272.3589 267.3691 263.1499 260.6258 259.4303 258.6547 257.3519 254.9002 250.8707 245.8091 240.142 234.8729 230.9669 228.731 228.409 230.4351 234.8468 241.8855 251.3908 263.1329 276.3471 289.8923 302.4157 312.5937 319.04 321.1432 318.8082 312.0785 302.7582 291.8136 279.7753 267.0275 253.9376 240.6903 227.3855 214.3905 202.1997 191.2154 181.9064 174.9466 171.0585 169.12 168.2796 167.9162 167.4425 166.4007 164.5953 162.3032 160.7714 159.8531 159.0677 158.7122 158.904 159.0257 159.4506 159.3243 158.3988 156.5446 154.372 152.0589 150.3346 152.6706 157.841 165.2275 173.9118 183.0021 192.09 200.7936 209.4819 218.5074 227.907 237.7756 248.2278 258.9336 269.5379 280.1186 290.1733 299.5941 308.6302 317.7045 327.0711 336.7087 346.5168 356.4414 366.5517 377.0579 388.208 400.1675 412.8259 425.7282 437.9113 448.0099 454.7224 456.8103 454.1831 448.2312 440.3334 431.7072 423.3763 415.8907 409.26 403.2398 397.6805 392.3361 387.2771 382.4769 377.9342 373.3491 368.0701 361.0594 351.7051 339.7477 325.5952 310.4017 295.7423 283.3489 274.8582 271.8616 275.0975 282.8123 294.0808 307.6972 322.3917 336.7269 349.0528 357.7603 361.3627
715.5771 725.4454 733.176 738.1511 740.7969 741.6514 741.246 740.1713 738.9573 738.2776 738.6672 740.4 743.6043 748.6055 754.7446 761.6337 768.4359 774.3227 778.8759 781.6996 782.7852 782.3903 780.5591 777.1879 772.5459 767.8774 763.9059 761.9944 762.9328 767.0515 773.962 782.9155 792.769 802.5182 811.3937 818.6954 823.3297 825.5147 825.5736 823.8561 820.757 816.972 813.0283 809.4077 806.549 804.3154 802.3918 800.7975 799.162 797.2379 794.5325 790.5699 784.9711 777.3057 767.2703 754.7824 740.0376 723.5834 706.1873 688.7499 672.1617 657.0406 643.6074 631.5916 620.1938 608.5279 595.9764 582.35 568.0009 553.5469 539.6517 526.8657 515.5934 505.7395 496.9612 488.9785 481.6301 474.6841 468.0344 460.8423 452.8572 444.3182 435.3871 426.3467 417.8758 410.6159 404.8663 400.7444 397.5567 394.9624 393.1634 392.4955 392.8248 393.8146 394.7217 395.2022 394.9271 393.3512 390.0445 385.2505 379.6185 373.9496 368.6604 363.8834 359.6451 355.3692 349.8964 343.2652 335.5309 326.8455 318.1928 310.5855 305.3818 303.606 306.266 313.0304 323.0661 335.1703 348.0473 360.4526 371.5831 380.8254 388.2002 393.5838 397.0903 398.1613 395.943 392.6965 388.9356 384.6823 379.8068 374.1368 367.8262 360.9742 354.0811 347.604 341.5275 336.5037 333.0651 332.04 333.6794 337.2743 341.6772 347.0315 353.475 361.3968 371.3228 383.2631 397.05 411.7373 425.9182 437.9128 446.0487 449.2835 447.707 441.9262 433.4946 423.9753 414.3935 405.0454 395.3638 384.2296 371.1476 356.2892 340.4642 324.8754 310.8977 299.774 292.0094 287.014 283.201 279.2976 274.3668 268.1176 260.6496 253.0785 246.4943 241.2844 238.5566 237.5416 237.6118 238.2894 239.0198 239.9818 241.5736 244.021 246.6193 249.0348 250.4425 250.6654 249.4729 247.0763 243.9941 241.2928 239.3556 238.6856 240.0144 243.4893 248.9469 256.2251 264.6447 273.4552 281.6506 288.0737 291.8498 292.7596 290.9142 286.8977 281.3827 275.8833 271.4397 268.6836 267.2379 266.2255 264.7581 262.5985 259.3387 255.1209 250.6151 246.5127 243.4493 241.8478 241.9341 243.989 248.1775 254.6469 263.357 274.0442 286.0146 298.1341 309.0302 317.3774 322.042 322.6421 319.1602 311.9521 302.3893 291.2581 279.0042 266.0757 252.7735 239.2462 225.6035 212.2624 199.8146 188.7068 179.4459 172.8372 169.8083 168.2098 167.3904 166.8878 166.146 164.7607 162.6983 160.4052 159.3963 159.0721 158.4075 157.8003 157.1951 157.0945 156.7769 155.9644 154.6288 152.921 151.366 150.3666 152.3105 156.6674 163.2733 171.7814 181.4036 191.3886 201.2908 210.7634 220.1564 229.8236 239.7973 249.9403 260.241 270.4215 280.1918 289.4565 297.9192 305.8125 313.3766 321.3015 329.9939 339.3589 349.2155 359.3801 369.7326 380.2817 391.0973 402.208 413.4792 424.5182 434.5726 442.443 447.0024 447.1789 443.0385 435.823 426.7802 417.1737 407.9998 399.8429 392.6701 386.2833 380.5686 375.3912 370.9237 367.2511 364.4063 362.0533 359.2988 354.9147 347.9191 337.5876 324.3039 309.3534 294.4965 281.7114 272.9818 270.0948 273.2748 281.362 293.2285 307.5106 322.7602 337.3221 349.407 357.3627 359.6234
706.0635 715.9985 724.2089 730.228 734.4167 736.9894 738.4504 739.3599 740.1346 741.3077 743.3876 746.6913 750.9371 756.805 763.8177 771.5128 779.121 785.6645 790.4875 793.1707 793.5465 792.332 789.7979 785.86 780.9316 776.1118 772.0934 770.0784 770.4995 773.6492 779.5364 787.4874 796.4055 805.2235 813.095 820.1727 824.8247 827.1617 827.4335 825.9706 823.095 819.509 815.8224 812.5217 810.5682 809.5425 809.097 809.1068 809.2332 809.0098 807.8854 805.2373 800.4343 792.9554 782.5151 769.1107 753.2413 735.6734 717.31 699.0975 681.9021 666.32 652.4604 639.8636 627.6844 615.0358 601.3387 586.5633 571.2306 556.0676 541.8259 529.0832 518.1199 508.5922 500.1386 492.6556 485.6407 478.9619 472.4609 465.522 457.7104 449.263 440.4128 431.6295 423.6304 416.9825 411.8773 408.2489 405.4124 403.1377 401.6701 401.0531 401.081 401.4113 401.5171 401.0653 399.8278 397.3078 392.9928 387.6546 381.5489 375.8124 370.6425 366.2387 362.3469 358.4003 353.1694 346.6957 338.6828 329.5865 320.2159 311.5601 304.8661 301.0133 301.6589 306.1981 313.7093 323.5121 334.7177 346.364 357.6775 367.9234 376.8734 384.2688 389.9551 393.4222 394.3017 393.6955 392.1646 389.8576 386.6736 382.2363 376.8734 370.7007 364.2474 357.9704 351.9677 346.929 343.2573 341.7294 343.5197 347.1479 351.4365 356.6972 363.1206 370.9574 380.7949 392.6701 406.2791 420.6576 434.3529 445.6451 452.8582 455.2571 453.0659 447.0917 438.7788 429.6743 420.7299 412.1999 403.2053 392.6913 379.916 365.065 348.9457 332.7272 317.7564 305.3329 296.1218 289.8834 285.1326 280.5923 275.4273 269.1611 261.9028 254.5546 247.767 241.9716 238.1827 235.8347 234.5121 233.9512 234.1469 234.9431 236.4597 238.726 240.9895 242.9793 243.9396 243.6331 242.0293 239.6836 237.2249 235.5216 235.1949 236.8856 240.7412 246.9197 254.8424 264.2271 274.4668 284.5402 293.3502 299.8266 303.3616 303.6505 300.9809 296.0182 289.5522 283.1407 278.0663 274.6581 272.7214 271.5559 270.4694 269.1401 267.0659 264.1296 261.2086 258.6461 256.7699 256.0227 256.65 258.827 262.6718 268.3528 275.9311 285.0894 295.2347 305.5269 314.6913 321.3793 324.8578 324.5332 320.4459 313.2759 303.9179 292.8648 280.4054 267.4821 253.8316 239.8279 225.7065 211.9394 199.2008 188.0028 178.8565 172.6586 170.5723 169.1503 168.3859 167.9156 167.1481 165.6519 163.6093 161.3188 160.0872 159.4141 158.9687 158.4859 157.4261 156.2623 154.9735 153.4849 151.939 150.6724 150.403 152.3189 156.1461 161.99 169.8086 179.1803 189.4842 200.0579 210.4915 220.5354 230.5093 240.6595 250.9988 261.2793 271.2979 280.7269 289.257 296.757 303.2635 309.3068 315.2667 321.8307 329.6537 338.6298 348.5645 359.1338 369.9722 380.8607 391.6454 402.1682 412.2024 421.368 429.0942 434.6329 437.3381 436.0979 430.9883 423.0361 413.4428 403.4623 393.937 385.4013 377.9275 371.3893 365.6463 360.7587 356.8983 354.3399 353.1443 352.8454 352.3327 350.3299 345.4984 336.7252 324.3274 309.6706 294.6955 281.6174 272.5871 269.3459 271.8493 279.5932 291.2228 305.4168 320.6133 334.9561 346.5479 353.6773 354.8578
694.7481 704.0812 712.217 718.7759 723.936 727.9182 731.0742 733.9347 736.853 739.9039 743.7517 748.6728 754.3563 761.3445 769.5157 778.2808 786.8467 794.2474 799.6 802.5249 802.0367 799.8743 796.5986 792.0852 787.2282 782.6613 779.2922 777.7782 778.2997 781.1023 786.2388 793.4431 801.6429 809.842 817.3924 823.653 827.9133 830.131 830.4345 829.1468 826.3784 822.9268 819.6878 816.8958 815.5652 815.3378 815.989 817.3279 818.949 820.1556 820.3398 818.7684 814.6421 807.2805 796.4715 782.3565 765.6252 747.1965 728.0625 709.184 691.3914 675.2351 660.7462 647.3816 634.308 620.684 606.0349 590.4276 574.429 558.8792 544.5953 532.1266 521.5726 512.512 504.5623 497.4315 490.5368 483.8503 477.4102 470.5093 462.9304 454.8597 446.4556 438.3266 431.206 425.4254 421.1111 418.0676 415.6933 413.7795 412.4245 411.5007 410.7704 409.983 408.7094 406.6369 403.7118 399.5782 394.2527 388.3213 381.8976 376.0614 370.8937 366.585 362.8192 359.2019 354.4966 348.4778 340.775 331.942 322.5956 313.5781 306.0475 300.8549 299.1922 301.0391 305.6381 312.7375 321.8165 332.1029 342.8794 353.3682 363.1374 371.8602 379.3199 385.0773 388.7895 390.9443 391.8882 391.7538 390.5141 387.9029 383.7557 378.6375 372.9342 366.9853 361.1431 356.0694 352.2119 350.5053 351.5315 354.7923 358.5241 363.2997 369.5966 377.6603 387.8007 400.0092 413.8254 428.2412 441.7631 452.6885 459.453 461.341 458.8135 452.7901 444.9403 436.6223 428.6553 421.024 412.6727 402.5698 389.8859 374.8308 358.2588 341.3343 325.4244 311.875 301.4461 293.9872 288.4059 283.4 278.0838 271.8499 264.8439 257.5825 250.5095 244.2743 239.3613 235.6344 232.8553 230.8818 230.3174 230.5777 231.5816 233.3755 235.1852 236.7145 237.2713 236.7243 235.083 232.9775 231.319 230.7297 231.8854 235.7628 241.8677 250.3194 260.5191 271.9179 283.7769 295.0111 304.4022 310.8831 314.0976 313.6755 310.1113 303.9522 296.2947 288.7621 282.6158 278.5081 276.1613 274.9976 274.4507 274.1059 273.4954 272.2852 271.1113 270.1767 269.617 269.817 271.0753 273.4368 276.7839 281.3954 287.4819 294.7462 302.7534 310.9947 318.5782 324.311 327.4295 326.9388 322.9379 316.4021 307.7065 297.0824 284.8739 271.4557 257.1487 242.3613 227.5222 213.1455 199.9628 188.5636 179.3573 173.0784 170.5087 169.9746 169.9285 169.8645 169.3662 168.0005 166.3995 164.4251 162.3856 160.7231 160.0699 159.6307 158.0781 156.1185 154.0836 152.2205 150.879 150.4429 152.3237 155.9654 161.2501 168.3127 176.9301 186.8034 197.4644 208.2617 218.8661 229.2117 239.5078 249.906 260.3507 270.5508 280.12 288.6187 295.7832 301.323 305.8468 310.0168 314.4207 319.2919 326.1376 334.6833 344.7913 355.9668 367.5277 379.0251 390.0471 400.2069 409.1581 416.5174 421.9951 425.5054 426.5484 424.1908 418.5693 410.4036 400.7759 390.8166 381.28 372.6754 365.0873 358.5486 352.9041 348.4703 345.3513 343.9722 344.305 345.8506 347.1559 346.7787 343.3856 336.0019 324.4396 310.0807 295.0394 281.7252 272.3076 268.3898 270.047 276.8867 287.7083 301.2047 315.7441 329.3772 340.1253 346.2222 346.5869
682.8022 691.0106 698.5299 705.0688 710.7383 715.7373 720.3207 724.7964 729.4495 734.3705 739.9647 746.5024 753.702 761.9402 771.1492 780.7635 790.0297 798.0665 804.0756 807.8228 806.2851 803.1974 799.3735 794.7906 790.329 786.6531 784.4187 784.0022 785.3813 788.7694 793.9656 800.9113 808.6539 816.2619 823.3884 829.2237 833.0076 834.9869 835.1578 833.8066 831.2067 828.1363 825.201 822.9039 821.9989 822.3215 823.7852 826.181 829.045 831.4264 832.6587 831.8922 828.2233 820.8916 809.6882 794.976 777.5329 758.3803 738.5722 719.0599 700.6251 683.7614 668.4581 654.1788 640.1946 625.7673 610.4365 594.3267 578.0693 562.5218 548.4529 536.3587 526.3131 517.7573 510.1649 503.0801 496.1967 489.3974 482.7778 475.9815 468.6654 461.0397 453.4276 446.4572 440.4935 435.736 432.3768 430.0298 428.2017 426.5631 425.0334 423.3823 421.3716 418.9583 415.7455 411.6219 406.6972 400.639 394.1479 387.6597 381.085 375.1556 369.9745 365.5301 361.7104 358.4798 354.5184 349.287 342.4024 334.4328 325.6844 316.7759 308.7155 302.3942 298.8851 297.5626 299.5219 303.6539 310.1985 318.5676 328.1519 338.1455 348.0002 357.3592 365.9902 373.511 379.6125 384.4035 387.8253 389.9561 390.8203 390.0266 387.3856 383.4193 378.5529 373.0298 367.4541 362.2195 358.1497 355.734 355.8704 358.4719 361.5599 366.1831 372.3692 380.817 391.6422 404.666 419.1959 434.0833 447.8419 458.836 465.7306 467.6786 465.1937 459.6237 452.6348 445.3127 438.328 431.3322 423.3258 413.2029 400.2683 384.7704 367.5601 349.8249 332.9824 318.398 306.8801 298.3563 292.0299 286.7986 281.3985 275.4751 268.6193 261.3256 254.0861 247.4291 241.5662 236.8307 232.9925 230.0528 228.2743 227.6408 227.7263 228.5459 229.4847 230.2716 230.5207 230.1347 229.1766 227.9768 227.3661 228.013 230.6125 236.0156 243.8201 254.0276 266.0091 278.9996 292.0757 304.1606 314.007 320.439 323.1921 322.1845 317.7832 310.338 301.3166 292.5343 285.4753 280.5315 277.7942 276.6601 276.6371 277.3145 278.2706 278.7913 279.3069 279.9428 280.5458 281.5913 283.4812 286.039 288.7778 292.058 296.3724 301.5718 307.6362 313.9412 320.2083 325.5908 329.2301 329.3932 326.311 320.7483 313.1022 303.2399 291.2104 277.3526 262.2197 246.4196 230.5824 215.4177 201.7149 190.0818 180.9006 174.881 172.1743 171.6371 171.7311 171.6886 171.1781 170.2358 169.3667 167.8038 165.1 162.7633 161.3044 160.1515 158.5879 156.2431 153.8628 152.058 151.629 152.7459 155.9342 160.8357 167.2097 175.0344 184.077 194.0887 204.6364 215.2095 225.6017 235.8916 246.2269 256.6641 267.0642 277.0502 286.0559 293.4536 299.1801 302.93 305.4857 307.6491 309.8559 313.5385 319.6926 328.052 338.4592 350.2633 362.6055 374.805 386.1654 396.0595 404.0457 409.7631 413.5017 415.4406 415.0058 411.7978 405.9424 397.9279 388.6912 379.1411 369.8765 361.4123 353.8854 347.4289 342.01 338.1833 336.0573 335.871 337.4979 340.2943 342.8465 343.5009 340.9891 334.3821 323.2888 309.1555 294.1655 280.7448 270.9659 266.2152 266.8782 272.5846 282.3738 294.9181 308.4787 321.0817 330.755 335.9429 335.8365
671.4988 678.2045 684.6336 690.6685 696.423 702.0305 707.6239 713.3101 719.373 725.8234 732.8335 740.751 749.3609 758.7427 768.6832 778.7036 788.1171 796.0551 801.6304 804.6057 803.7956 801.0721 797.5667 793.6093 790.1541 787.7917 787.155 788.4379 791.253 795.9296 801.9546 809.2548 817.047 824.537 831.4723 837.0359 840.4366 841.9196 841.7516 840.2274 837.6521 834.6527 832.0405 830.3765 830.1248 831.0919 833.3329 836.5994 840.2877 843.5449 845.5733 845.3182 841.8167 834.3027 822.6397 807.3002 789.1585 769.3068 748.8454 728.692 709.5673 691.9126 675.7191 660.5607 645.8137 630.774 615.0558 598.8125 582.6384 567.3252 553.6204 541.9429 532.1953 523.9259 516.602 509.3891 502.2319 495.2961 488.5907 481.9163 475.0975 468.2687 461.6994 455.9936 451.334 447.9574 445.5645 443.858 442.4233 440.8168 438.7424 435.9259 432.2044 427.7681 422.3161 415.8792 408.593 400.7612 393.0804 386.0548 379.4614 373.4318 368.2391 363.7292 360.1265 357.1626 353.89 349.6093 343.8201 336.8963 328.8932 320.4702 312.4445 305.4716 300.4726 297.1274 295.792 296.768 300.4874 306.5611 314.3953 323.2325 332.486 341.808 350.9445 359.5466 367.3132 374.0844 379.7469 384.2097 387.3413 388.4778 387.3016 384.4731 380.351 375.2587 369.7753 364.3328 359.7194 356.3832 355.2923 357.1183 359.6606 364.1875 370.9131 380.2319 392.0968 406.2348 421.8134 437.5385 451.9499 463.4816 470.9214 473.559 471.935 467.4522 461.5996 455.3367 449.1897 442.5567 434.528 424.0039 410.4967 394.3022 376.3016 357.7098 339.9386 324.3477 311.8197 302.4384 295.5657 290.0636 284.7774 279.046 272.4673 265.3428 257.9523 250.9382 244.6196 239.1235 234.4441 230.6527 227.956 225.8952 224.6573 224.2051 224.3658 224.6535 224.785 224.7312 224.5993 224.4857 225.022 226.8879 230.7636 237.4283 246.5773 258.042 271.1567 285.1569 299.0225 311.5778 321.6199 327.9603 330.2772 328.6888 323.4212 314.7975 304.5031 294.5809 286.6943 281.0469 277.8945 276.6763 276.9741 278.3384 280.2605 282.3573 284.5085 286.6921 288.1969 289.8559 292.1981 294.9666 297.0586 298.9832 301.4047 304.7066 308.9943 313.7303 319.0939 324.3708 328.7345 330.4277 329.4183 325.6277 319.6164 310.7054 298.7958 284.4306 268.3596 251.4235 234.4826 218.4642 204.2066 192.3 183.123 177.2824 174.5428 173.9768 173.9144 173.447 172.5093 171.5766 170.7444 169.3193 166.4781 163.8756 162.0146 160.5927 159.0106 156.3384 153.8928 152.3307 153.2622 155.9032 160.3403 166.3249 173.3912 181.6593 190.8349 200.5693 210.4519 220.1903 229.9211 239.8243 249.9582 260.2606 270.4949 280.1897 288.6415 295.0947 299.5565 301.7037 302.3956 302.5462 303.3712 306.1169 311.6575 319.881 330.5695 342.8657 355.8124 368.448 379.8871 389.4128 396.5563 401.1077 403.5959 404.3188 402.7529 398.9424 392.9618 385.2785 376.667 367.8391 359.1578 351.0358 343.7538 337.4416 332.3253 329.1476 328.0324 328.925 331.6045 335.3546 338.624 339.6563 337.3687 330.812 319.7762 305.7744 290.9502 277.6082 267.6619 262.2306 262.0693 266.8344 275.4775 286.8498 299.2294 310.6626 319.2603 323.7325 323.48
661.8177 666.8562 671.907 677.0761 682.5468 688.3638 694.519 701.0554 708.0931 715.581 723.7162 732.6766 742.1533 752.178 762.3456 772.2473 781.2727 788.6813 793.701 796.264 796.0502 794.0291 791.2674 788.6234 786.7493 786.0502 787.3444 790.5778 795.5289 801.9219 809.4084 817.6196 826.0031 833.9 840.9794 846.4781 849.65 850.7445 850.1658 848.2484 845.3672 842.4191 840.2028 839.0945 839.5515 841.3236 844.4256 848.4521 852.8104 856.7524 859.2859 859.2299 855.5802 847.6097 835.3419 819.274 800.4028 779.8773 758.791 738.0226 718.2366 699.8323 682.847 666.9475 651.6147 636.2435 620.4767 604.3887 588.4517 573.4219 560.0545 548.671 539.078 530.9135 523.5757 516.1866 508.8327 501.7787 495.1178 488.8862 482.6621 476.7358 471.3126 466.8508 463.5577 461.5497 460.2335 459.1614 457.8909 455.9125 452.8348 448.4067 442.633 435.8305 427.8718 419.0564 409.7681 400.5172 391.892 384.285 377.5229 371.2572 365.8744 361.3667 357.9995 355.3483 352.7454 349.4272 344.6972 338.9047 332.0222 324.5558 317.1519 309.976 303.627 298.3122 294.2193 292.084 293.0864 296.7832 302.4452 309.5087 317.5269 326.197 335.1703 344.1322 352.8209 360.9786 368.4024 374.7714 379.7391 382.6732 383.2045 381.6241 378.274 373.4859 367.9963 362.2677 357.0448 352.7178 350.0645 350.7593 353.1429 358.0675 365.6168 376.0363 389.1272 404.5293 421.3007 438.1112 453.5684 466.2485 474.9187 478.7959 478.6378 475.6281 471.157 466.0091 460.5428 454.1107 445.7581 434.6136 420.3756 403.4158 384.6341 365.2479 346.6473 330.1666 316.7711 306.7296 299.3633 293.6492 288.4406 282.7714 276.3381 269.1628 261.7485 254.7276 248.1274 241.9903 236.6841 232.163 228.4931 225.0842 222.5709 221.0265 220.6647 220.6105 220.7238 221.0485 221.701 222.4826 224.0184 226.9475 231.8501 239.493 249.5724 261.7767 275.5225 290.0046 304.1942 316.8784 326.7986 332.8259 334.6889 332.2779 326.0953 316.6032 305.5291 294.9425 286.5076 280.4127 276.7835 275.3295 275.7552 277.6022 280.2499 283.192 286.1999 289.1703 291.2321 293.4244 296.1075 298.9319 300.4039 301.3059 302.2948 303.9585 306.7312 310.2894 315.186 320.7785 326.3525 330.3672 332.0837 330.7812 326.4528 318.4366 306.6524 291.7962 274.8029 256.7732 238.827 222.0297 207.2698 195.1228 185.8749 179.8914 177.1925 176.6978 176.2039 174.5583 172.9567 171.5906 170.4861 168.8272 165.9946 163.4889 161.6066 160.0979 158.2256 155.8154 153.7367 152.7929 155.1372 159.164 164.7287 171.5179 179.1424 187.4903 196.3883 205.5002 214.4287 223.0083 231.8261 241.1598 250.9378 260.9669 270.9234 280.2632 288.1572 293.7164 297.1019 297.9984 297.3734 296.2892 296.196 298.2265 303.1206 311.1124 321.8704 334.4167 347.6056 360.3008 371.5743 380.6076 386.9675 390.6308 392.1566 391.8926 389.6099 385.4211 379.4639 372.2444 364.3672 356.3721 348.4235 340.8467 334.0206 328.0132 323.368 320.8748 320.7216 322.6349 326.2834 330.4879 333.7659 334.4696 331.6101 324.5709 313.3718 299.4077 284.7625 271.6723 261.93 256.4745 255.8171 259.6694 267.2587 277.3771 288.5209 298.8238 306.5267 310.5023 310.3389
654.6775 658.0102 661.5806 665.6209 670.4943 676.1134 682.4868 689.5102 697.1307 705.2328 714.0334 723.4924 733.2388 743.2594 753.0634 762.347 770.5541 777.1776 781.6794 784.0838 784.4084 783.315 781.7544 780.5383 780.3131 781.9277 785.646 791.2114 798.4304 806.7696 815.835 825.2396 834.6406 843.4465 851.0247 856.7285 859.8669 860.7233 859.7766 857.4368 854.2197 851.3898 849.5596 849.0151 850.0262 852.5637 856.4967 861.267 866.3163 870.7952 873.5903 873.4444 869.3451 860.6422 847.5178 830.6329 811.0598 789.937 768.3196 747.0543 726.7678 707.8394 690.3054 673.9045 658.2563 642.7874 627.131 611.2879 595.6373 580.8365 567.5674 556.1351 546.4401 538.2108 530.659 523.1353 515.8499 509.0808 502.801 497.1387 491.659 486.7298 482.4427 479.3006 477.3425 476.4617 476.0447 475.4238 473.9981 471.2164 466.7061 460.3502 452.3039 442.9846 432.632 421.7627 410.8811 400.5479 391.2048 382.9847 375.9188 369.4649 363.7549 359.1642 355.636 353.084 350.9988 348.4861 344.7757 340.2896 334.9133 328.6078 321.783 314.6178 307.3319 300.4521 294.5137 290.1447 288.4397 289.4021 292.612 297.622 303.9892 311.4627 319.6389 328.2775 337.2085 346.1413 354.7228 362.4912 368.968 373.4978 375.4792 374.9687 372.1774 367.7274 362.1448 356.2329 350.4081 345.5092 342.2392 341.6057 343.6669 348.8569 357.1738 368.6024 382.9019 399.5784 417.5545 435.5442 452.219 466.2411 476.4374 482.1547 484.1462 483.165 480.5176 476.6918 471.8559 465.5538 456.7902 444.9735 430.002 412.3448 392.9027 372.8787 353.6388 336.4974 322.4328 311.7358 303.9045 297.9774 292.6853 286.9952 280.4252 273.2618 265.8925 258.8527 251.9208 245.3119 239.2598 233.8286 229.0618 224.7307 221.5287 219.8315 219.2176 218.8078 218.9833 219.7381 220.526 221.6968 223.9478 227.7757 233.4837 241.7225 252.2839 264.8003 278.6665 293.1387 307.2093 319.6401 329.241 334.9483 336.3809 332.9847 325.8387 315.781 304.4531 293.7186 285.066 278.7878 274.7732 273.0272 273.4167 275.5129 278.5402 281.5888 284.5676 287.5462 289.8944 292.3856 295.1505 297.8777 299.2336 299.5694 299.5269 299.8066 301.2411 304.3409 309.3877 315.7569 323.1076 329.8094 334.344 335.44 332.6395 325.512 313.9714 298.8134 281.1594 262.3264 243.6562 226.308 211.2153 198.8873 189.4962 183.1748 180.0519 179.3137 177.3335 174.9771 172.6945 170.5415 168.8831 166.4783 163.841 161.7808 160.2096 159.0753 157.1341 155.0914 153.5388 153.2829 156.9736 162.073 168.5804 175.9654 183.6628 191.5796 199.7673 207.9745 215.8566 223.4491 231.4987 240.2831 249.647 259.2924 268.8424 277.734 285.0146 289.6336 291.7773 291.7672 290.4093 288.8194 288.2736 289.9398 294.5343 302.3136 312.8788 325.2961 338.3101 350.6844 361.4431 369.8015 375.4382 378.364 379.1256 378.1193 375.398 371.0509 365.34 358.7297 351.625 344.4105 337.2443 330.3159 324.0812 318.7594 315.0141 313.4172 314.3889 317.3177 321.5403 325.8157 328.5726 328.2782 324.2365 316.088 304.3247 290.2397 275.8071 263.0994 253.7393 248.627 247.8218 251.0036 257.6889 266.6844 276.7322 286.1263 293.1729 296.9041 296.9943
651.011 652.454 654.5214 657.3043 661.2943 666.454 672.8208 680.0491 687.8932 696.1754 705.0912 714.4473 723.8671 733.3375 742.3419 750.6538 757.748 763.4714 767.4876 769.9093 770.8876 770.9707 770.8167 771.1624 772.7164 777.097 783.1547 790.9561 800.1091 810.1769 820.809 831.6347 842.2912 852.2482 860.6799 866.9123 870.2762 871.1194 869.982 867.3701 863.9558 861.1727 859.5951 859.4744 861.0303 864.3238 869.0104 874.5854 880.3192 885.2239 888.0797 887.5829 882.7531 873.0684 858.9101 841.1642 820.9476 799.3847 777.4559 755.9265 735.4093 716.2892 698.5689 681.9458 666.2307 650.8044 635.2824 619.6043 604.0663 589.2387 575.7646 564.0316 554.0952 545.6686 537.9124 530.4459 523.3954 517.1165 511.4561 506.5067 501.8779 497.9735 494.8587 492.9602 492.2038 492.2643 492.4675 491.9479 489.9848 486.0078 479.7815 471.3184 461.0123 449.4707 437.1897 424.7257 412.6613 401.5841 391.8394 383.166 375.6599 368.7061 362.329 357.243 353.2411 350.4638 348.5544 346.3305 343.7723 340.7498 336.8748 331.5534 325.4304 318.2435 310.5628 302.963 295.856 289.676 285.6642 284.194 285.2661 288.1803 292.5981 298.4357 305.2593 313.0206 321.5933 330.6746 339.8035 348.4002 355.8153 361.3826 364.3946 364.7716 362.7053 358.618 353.1039 347.0422 340.8542 335.5051 331.8748 330.7662 332.5992 337.8556 346.6776 358.9052 374.1755 391.8373 410.8195 429.9125 447.8391 463.3351 475.3793 483.475 488.1901 489.7098 489.1025 486.7857 482.732 476.6755 467.6604 455.3003 439.7294 421.5546 401.6889 381.2832 361.636 344.0235 329.4446 318.2796 310.1246 303.7661 298.1958 292.1997 285.4796 278.3713 270.884 263.4208 256.0222 248.7106 241.7872 235.4629 229.6546 224.555 220.7343 218.8186 218.0473 217.6404 217.8799 218.754 219.9342 221.3112 224.1234 228.803 235.2317 243.6968 254.2973 266.6429 280.1731 294.2484 307.8889 319.8507 328.9555 334.1856 335.2694 330.7852 322.7882 312.5462 301.4972 291.1433 282.6348 276.4506 272.4029 270.5238 270.7346 272.6482 275.3275 278.1174 280.3961 282.6794 285.1152 287.7014 290.2936 292.728 294.2725 294.5763 294.1023 293.6372 294.41 297.6567 302.9807 310.3853 319.6569 328.7384 335.9235 339.1625 337.8557 331.5905 320.4264 305.2784 287.3809 268.2158 249.2371 231.6656 216.4387 204.0296 194.4098 187.5745 183.2424 180.8711 178.3953 175.5952 172.6427 169.6371 166.6571 163.5614 161.0203 159.493 158.2028 157.1558 155.8065 154.5366 153.9104 155.3017 159.1978 164.7926 171.533 179.0264 186.6136 193.8141 200.9563 208.0234 214.7881 221.6738 229.2111 237.5495 246.5393 255.7784 264.8361 273.2083 279.8836 283.9377 285.3893 284.7271 282.7477 280.7555 279.947 281.6282 286.235 293.7198 303.8735 315.7974 328.2249 339.9085 349.8293 357.3795 362.2109 364.4477 364.6055 363.1127 360.1853 355.9341 350.6707 344.7321 338.4126 331.9456 325.5423 319.3261 313.8077 309.5465 307.1428 306.8813 309.0135 312.9289 317.6891 321.5566 323.1547 321.2357 315.513 305.9756 293.3373 279.0317 264.8409 252.6386 243.8236 239.1448 238.4115 241.2683 247.3434 255.5063 264.7202 273.3615 279.8609 283.3873 283.7698
649.9629 650.3404 650.8213 652.2025 655.3635 660.0535 666.1234 673.1787 680.9158 689.0947 697.695 706.4227 715.0255 723.5151 731.3892 738.4838 744.4218 749.2857 752.9197 755.4811 757.227 758.6493 760.0707 762.2059 766.1815 772.7325 780.9185 790.4603 801.0638 812.4828 824.4493 836.561 848.4222 859.5338 869.0594 876.1249 880.0289 881.1851 880.1522 877.5226 874.0803 871.3578 869.9533 870.1496 872.198 876.1919 881.5978 887.981 894.377 899.6085 902.3437 901.261 895.4573 884.6151 869.3774 850.8481 830.1754 808.4282 786.4824 765.0303 744.6284 725.6088 707.9641 691.4918 675.7913 660.4092 644.9371 629.2618 613.6221 598.5402 584.702 572.5701 562.2255 553.4133 545.5417 538.306 531.5922 525.7772 520.8722 516.7603 513.0703 510.2194 508.2738 507.4629 507.6383 508.3486 508.797 508.0091 505.1889 499.799 491.7681 481.2833 468.9956 455.6142 441.8606 428.3995 415.7291 404.282 394.3849 385.4725 377.4547 369.7631 362.5919 356.5405 351.5086 348.0569 345.599 343.5413 341.9548 340.1466 337.2149 332.9255 327.5027 320.6482 313.1332 305.3399 297.3727 289.997 284.3947 281.0304 280.459 281.4024 283.7777 287.681 292.7403 299.1962 306.9001 315.5826 324.6873 333.5457 341.4119 347.5875 351.3108 352.3817 350.9279 347.2896 342.0335 336.0308 329.8276 324.3884 320.7879 319.63 321.3894 326.6309 335.6742 348.3297 364.1053 382.2771 401.8872 421.8048 440.8205 457.783 471.8332 482.5151 490.0442 494.4984 496.2968 495.8158 493.0188 487.5786 478.6451 466.0501 450.1292 431.6271 411.5057 390.9013 371.0663 353.2355 338.388 326.9077 318.3602 311.5035 305.3779 298.9896 291.8603 284.2408 276.228 267.9941 259.7957 251.8188 244.2661 237.1334 230.403 224.7121 220.4397 218.1044 216.9976 216.6109 216.89 217.8273 219.2831 220.5976 223.7903 229.1474 236.173 244.7187 254.9957 266.8867 279.9138 293.3998 306.4223 317.7274 326.0411 330.2562 330.2321 325.6539 317.6003 307.6668 297.2758 287.7414 279.9729 274.3037 270.6949 269.4699 269.4258 270.3423 271.9739 273.9066 275.2687 276.83 278.7519 280.9602 283.4639 285.9622 287.6491 288.069 287.6012 287.0485 287.7982 291.0134 296.8118 305.3683 315.9515 326.8161 336.0103 341.2197 341.6317 336.654 326.3062 311.6156 293.9608 274.9648 256.169 238.8323 223.8088 211.5456 201.894 194.5538 189.2352 185.2623 181.5201 177.7891 173.7994 169.5986 165.4008 161.5065 159.0215 157.5312 156.4982 155.7158 154.9435 154.4914 155.1175 157.1854 161.1711 167.0131 173.5971 180.6875 187.7863 194.168 200.2426 206.1086 211.9693 218.3419 225.4145 233.4287 242.2543 251.3858 260.2275 268.1794 274.2351 277.7397 278.66 277.5945 275.2714 272.9568 271.9293 273.7123 278.2738 285.4366 294.9851 306.0612 317.4929 328.124 337.0341 343.6852 347.7267 349.3701 349.0974 347.3492 344.4638 340.5736 335.864 330.5742 324.9697 319.2391 313.552 308.17 303.5466 300.5554 299.678 301.0926 304.6747 309.9592 315.0001 318.3186 318.2972 314.364 306.6421 295.4066 281.6849 266.9792 252.9839 241.3464 233.172 229.0229 228.5314 231.3203 237.0883 244.7557 253.3669 261.3152 267.2875 270.5556 271.2016
650.021 649.976 650.1484 650.3687 652.2969 656.35 662.0275 668.8583 676.1465 683.7866 691.7646 699.681 707.2812 714.5315 721.1278 727.0097 731.879 735.9992 739.4213 742.2161 744.7825 747.5819 750.6008 754.5488 761.141 769.5215 779.2413 789.9542 801.489 813.7803 826.5836 839.5496 852.3889 864.5992 875.2617 883.3581 888.1556 890.0856 889.576 887.3104 884.1368 881.642 880.4571 880.9415 883.422 888.0162 894.1191 901.2401 908.2355 913.6783 916.1147 914.2522 907.3092 895.2516 879.0417 859.9155 839.0508 817.4455 795.8502 774.8356 754.847 736.1596 718.8937 702.582 686.97 671.5467 655.9781 640.1205 624.2023 608.7462 594.4406 581.7943 570.9579 561.7529 553.7911 546.7939 540.4314 535.0493 530.9177 527.6699 524.9215 523.0396 522.0898 522.1176 522.9249 523.9923 524.3572 523.033 519.1897 512.4117 502.6988 490.4819 476.5737 461.8546 447.1812 433.2604 420.5961 409.4087 399.6096 390.4242 381.6869 373.192 365.1232 357.8056 351.4321 346.7837 343.403 341.0006 340.0606 339.2751 336.9396 333.4028 328.6267 322.3654 315.2948 307.5118 299.2111 291.2916 284.91 280.5108 278.558 277.6405 277.9757 279.6455 282.6622 287.4613 293.9283 301.7711 310.3553 318.9847 326.8825 333.3195 337.4978 339.0848 338.117 334.8985 330.0968 324.4443 318.6973 313.6672 310.4706 309.5913 311.4809 316.7508 325.6967 338.2597 353.942 372.0788 391.8576 412.2393 432.0966 450.3961 466.3958 479.6882 490.1641 497.7264 502.2048 503.9442 502.8709 498.439 489.9358 477.4256 461.3958 442.7302 422.4727 401.7925 381.9256 364.0633 349.1126 337.3783 328.3226 320.839 313.9243 306.8524 298.9377 290.3472 281.3281 272.1515 263.1787 254.64 246.4854 238.5993 231.3048 225.2755 220.6478 217.9243 216.4496 215.8318 215.8935 216.5625 217.7734 219.4531 222.7339 228.4759 235.6358 244.0004 253.9593 265.5178 278.1581 291.1168 303.456 313.9056 321.2801 324.5937 323.6222 318.7921 310.9249 301.6263 292.2077 283.9009 277.4763 272.8782 270.1715 269.7684 269.4411 269.4258 269.4258 270.0877 270.6784 271.4141 272.5247 274.1797 276.4736 278.7344 280.312 280.8417 280.614 280.4135 281.4924 285.0929 291.5663 301.0301 312.5993 324.7052 335.4373 342.5886 344.8559 341.2503 332.0423 318.3123 301.497 283.2544 265.1435 248.4352 233.931 221.9787 212.4852 204.7986 198.6046 193.1271 187.9488 182.6702 177.2778 171.6305 166.4077 161.8237 158.8721 157.1199 156.1411 155.5858 155.1499 155.6852 156.9245 159.2303 163.0772 168.6263 174.7477 181.129 187.4167 192.8866 197.9953 202.865 208.0786 214.0175 220.9176 229.0687 238.007 247.1642 255.762 263.2749 268.7185 271.4467 271.8394 270.4943 268.0846 265.6587 264.5351 266.291 270.6354 277.4524 286.2016 296.1038 306.1912 315.4876 323.3037 329.0876 332.5185 333.7868 333.3426 331.6477 329.0369 325.6652 321.5306 316.7825 311.7616 306.6812 301.7362 297.3698 293.9358 292.4006 293.2585 296.7311 302.0962 308.3572 313.1753 315.3667 313.7996 308.0742 298.4179 285.543 270.7075 255.5214 241.6182 230.4998 223.0105 219.5 219.3741 222.2496 227.8969 235.2499 243.2699 250.4849 255.9326 258.9425 259.8311
651.0567 650.0653 649.9904 650.4401 650.9951 654.5511 659.9136 666.2851 672.9659 680.0158 687.207 694.1611 700.7375 706.7154 712.0751 716.8944 720.9401 724.5717 727.9822 731.1644 734.5796 738.6037 743.1172 749.4808 757.5356 767.1682 777.9019 789.3041 801.2695 813.8746 827.0168 840.4552 853.9497 866.9382 878.4675 887.5754 893.5903 896.8674 897.4316 896.0787 893.6869 891.78 891.0158 891.8751 894.8004 899.9456 906.6996 914.4405 921.8683 927.3705 929.344 926.6011 918.5701 905.4647 888.4722 868.9499 848.1138 826.9186 805.9946 785.7231 766.3934 748.2273 731.2318 715.0995 699.5289 683.9767 668.1201 651.8931 635.5479 619.6398 604.8021 591.5723 580.2355 570.7278 562.7228 555.8658 549.8572 544.9241 541.4034 538.8659 536.9063 535.7226 535.4091 535.934 537.0484 538.1924 538.3061 536.3763 531.578 523.5933 512.5552 499.0822 484.0953 468.6124 453.5958 439.7296 427.4149 416.6783 407.1221 397.8899 388.5645 379.213 369.9199 361.0981 353.292 347.2811 342.8946 340.0351 338.858 338.1573 336.5916 333.8564 329.7823 324.3727 317.866 310.294 302.086 294.0577 287.2386 281.9414 278.692 276.3358 274.925 274.493 275.4283 278.4398 283.4151 290.0403 297.648 305.5999 313.1424 319.4872 323.7828 325.6944 325.1545 322.4596 318.3621 313.429 308.6174 304.5168 302.1447 301.8771 304.1266 309.5049 317.9913 329.9622 345.0141 362.5793 381.981 402.3486 422.6871 442.0493 459.739 475.3674 488.6789 499.3468 507.0309 511.4105 512.3185 509.1688 501.3744 489.2196 473.2754 454.5795 434.2742 413.5914 393.7732 375.9834 361.0484 349.0476 339.4019 331.0909 323.1492 314.9503 305.8722 296.1037 285.9822 275.8452 266.131 256.9706 248.2159 239.9473 232.5437 226.4513 221.5584 218.4435 216.4958 215.452 215.1286 215.4365 216.4247 218.252 221.5882 227.1889 234.059 242.3041 252.0995 263.3225 275.5694 288.0799 299.8136 309.5768 316.2639 318.7989 317.1546 311.8666 304.119 295.498 287.3835 280.6913 275.8234 272.5438 270.7072 270.6924 271.0075 271.1816 270.8218 269.4258 268.8377 268.3969 268.3189 268.8907 270.2154 271.8412 273.2833 273.9547 274.0562 274.2958 275.8177 279.8383 287.0273 297.2892 309.74 322.9105 334.9712 343.8505 348.0654 346.0266 338.2649 325.9665 310.5035 293.5092 276.5243 260.7994 247.1144 235.6479 226.1928 218.2756 211.1889 204.4488 197.745 190.7397 183.5882 176.5667 170.3605 165.0705 161.2263 158.9365 157.8596 157.5072 157.6132 158.3343 159.777 161.9883 165.5706 170.1178 175.3281 180.6661 185.7135 190.1941 194.3105 198.5388 203.3986 209.406 216.474 225.0257 234.4304 243.7941 252.3583 259.3706 263.8808 265.8191 265.6478 263.909 261.2784 258.9048 257.8864 259.2908 263.1411 269.3265 277.1675 285.8155 294.4361 302.4016 309.1504 314.1904 317.2802 318.4778 318.174 316.8727 314.7765 311.9701 308.3384 303.9194 299.2738 294.6344 290.4768 287.2717 285.3682 285.565 288.3354 293.6652 300.762 307.7715 312.2898 313.4405 310.4442 302.9965 291.6386 277.3413 261.5468 245.9144 232.0349 221.3458 214.6255 211.937 212.2755 215.3132 220.938 227.8686 235.0763 241.3998 246.1528 248.8218 249.8954
653.6304 651.1605 650.1158 650.0065 650.6589 653.9195 658.7945 664.3447 670.4121 676.8126 683.1465 689.3458 695.1483 700.0662 704.47 708.4926 712.1226 715.6803 719.1982 722.9303 727.2816 732.402 738.5033 745.8027 754.6611 765.1369 776.5419 788.2856 800.2928 812.7449 825.7811 839.2971 853.0137 866.4314 878.6559 888.7251 896.0074 900.6034 902.9956 903.2051 902.2897 901.4694 901.4531 902.886 906.36 912.0502 919.419 927.6594 935.3558 940.7529 942.2197 938.5719 929.5731 915.6409 898.1046 878.4209 857.861 837.3112 817.2381 797.8253 779.198 761.5176 744.7251 728.6335 712.8966 697.0309 680.7342 664.0214 647.1859 630.7667 615.3737 601.5886 589.7797 580.0237 571.9188 565.1862 559.5632 555 551.8199 549.6244 548.0107 547.0488 546.9501 547.6266 548.7612 549.7953 549.6295 547.1985 541.7219 532.9559 521.2224 507.1442 491.7329 476.1617 461.4017 448.089 436.4909 426.3482 417.0663 407.6937 397.7982 387.4676 376.8602 366.5642 357.3207 349.8174 344.3141 340.6945 339.1437 338.429 337.4246 335.4174 331.9926 327.3977 321.5041 314.4866 306.7357 298.8783 291.7503 285.7079 281.2766 277.6852 274.6963 272.2798 271.0922 272.3696 275.7817 280.8675 287.1534 294.0275 300.8687 306.7785 310.8286 312.8058 312.6775 310.7443 307.6428 303.8564 300.4051 297.8103 296.7377 297.4559 300.2259 305.449 313.3113 324.3221 338.2994 354.8162 373.3296 393.1514 413.4603 433.4112 452.3358 469.8498 485.619 499.1629 509.9378 517.3546 520.6312 519.0541 512.2632 500.6061 484.9111 466.3404 446.119 425.4967 405.7348 387.9771 372.9769 360.6328 350.3055 341.09 331.9308 322.252 311.7332 300.6719 289.4843 278.5798 268.2513 258.5824 249.5638 241.3729 234.3349 228.39 223.3756 219.6942 217.1432 215.5387 214.7443 214.6609 215.4721 217.3102 220.5917 225.7826 232.3961 240.623 250.3092 261.2463 273.0771 285.1515 296.4284 305.6226 311.6498 313.5824 311.3928 305.94 298.3689 290.4429 283.4578 278.5262 275.4448 273.9216 273.6883 274.5293 275.432 275.8563 275.4893 272.3089 269.7838 267.5277 265.7312 264.751 264.8749 265.727 266.84 267.5446 267.9846 268.6773 270.6581 275.1851 283.1824 294.0275 307.2921 321.429 334.6113 344.8419 350.4635 350.4022 344.8127 334.6196 321.0649 305.7908 290.3247 275.9017 263.212 252.326 242.954 234.6296 226.6825 218.6525 210.3777 201.7488 192.9926 184.6225 177.2412 171.0021 166.3248 163.2998 162.0253 161.7106 161.9072 162.5843 163.9712 165.8861 168.5926 171.6566 175.5868 179.6531 183.2032 186.5788 189.8055 193.6554 198.8551 205.3511 213.1563 222.3709 232.1378 241.5809 249.8328 256.0575 259.4608 260.4915 259.7427 257.6551 254.8124 252.3089 251.2637 252.3085 255.6257 260.9025 267.6873 275.0992 282.429 289.2908 295.164 299.7329 302.8008 304.2967 304.5119 303.869 302.4197 300.0874 296.7302 292.3793 287.8136 283.3574 279.8625 277.7812 277.4798 279.513 284.3114 291.7096 300.2526 307.8433 312.1655 312.5564 308.4862 299.6219 286.8128 271.3555 254.8568 238.931 225.0992 214.7584 209.0047 207.5317 208.4124 211.4974 216.7348 222.8809 229.1211 234.3617 238.1677 240.4238 241.6467
